118.00000000	-67.00000000	-13.86589813
118.50000000	-67.00000000	-15.77210999
119.00000000	-67.00000000	-17.60868835
119.50000000	-67.00000000	-18.35571289
120.00000000	-67.00000000	-19.98507690
120.50000000	-67.00000000	-22.46540070
121.00000000	-67.00000000	-23.76374817
121.50000000	-67.00000000	-25.84899902
122.00000000	-67.00000000	-27.69552612
122.50000000	-67.00000000	-29.28414917
123.00000000	-67.00000000	-30.60116577
123.50000000	-67.00000000	-31.63425446
124.00000000	-67.00000000	-32.36840057
124.50000000	-67.00000000	-33.78540802
125.00000000	-67.00000000	-33.87290192
125.50000000	-67.00000000	-34.63906860
126.00000000	-67.00000000	-35.12808228
126.50000000	-67.00000000	-36.42687988
127.00000000	-67.00000000	-37.65786743
127.50000000	-67.00000000	-38.95610809
129.00000000	-67.00000000	-43.13516235
129.50000000	-67.00000000	-44.25645447
130.00000000	-67.00000000	-46.38180542
130.50000000	-67.00000000	-47.32986450
131.00000000	-67.00000000	-47.92796326
131.50000000	-67.00000000	-48.05441284
132.00000000	-67.00000000	-47.67591858
132.50000000	-67.00000000	-71.87094116
133.00000000	-67.00000000	-74.83143616
133.50000000	-67.00000000	-75.84066772
134.00000000	-67.00000000	-76.23278809
134.50000000	-67.00000000	-75.34399414
135.00000000	-67.00000000	-75.46827698
135.50000000	-67.00000000	-75.82733154
136.00000000	-67.00000000	-76.55525208
136.50000000	-67.00000000	-76.69378662
137.00000000	-67.00000000	-77.19689941
137.50000000	-67.00000000	-78.94372559
138.00000000	-67.00000000	-79.75079346
138.50000000	-67.00000000	-80.38836670
139.00000000	-67.00000000	-78.59579468
139.50000000	-67.00000000	-74.10038757
140.00000000	-67.00000000	-52.63520813
140.50000000	-67.00000000	-52.95932007
141.00000000	-67.00000000	-51.87730408
141.50000000	-67.00000000	-52.24665833
142.00000000	-67.00000000	-49.98210907
143.00000000	-67.00000000	-46.45378113
143.50000000	-67.00000000	-43.23271942
145.50000000	-67.00000000	-37.46519470
146.00000000	-67.00000000	-37.24823761
46.50000000	-67.50000000	-4.44070435
47.00000000	-67.50000000	-5.64797974
47.50000000	-67.50000000	-6.76193237
49.00000000	-67.50000000	-9.75169373
49.50000000	-67.50000000	-10.69146729
50.00000000	-67.50000000	-11.59123230
50.50000000	-67.50000000	-13.41023254
51.00000000	-67.50000000	-14.09010315
51.50000000	-67.50000000	-14.56401062
52.00000000	-67.50000000	-14.76654053
52.50000000	-67.50000000	-13.64451599
53.00000000	-67.50000000	-13.16560364
53.50000000	-67.50000000	-12.32141113
54.00000000	-67.50000000	-11.12440491
54.50000000	-67.50000000	-9.60173035
55.00000000	-67.50000000	-6.78778076
55.50000000	-67.50000000	-4.71626282
56.00000000	-67.50000000	-2.41938782
56.50000000	-67.50000000	1.06762695
57.00000000	-67.50000000	3.69982910
57.50000000	-67.50000000	6.41786194
58.00000000	-67.50000000	9.14636230
58.50000000	-67.50000000	11.79893494
59.00000000	-67.50000000	15.28819275
60.00000000	-67.50000000	19.47221375
60.50000000	-67.50000000	21.04974365
61.00000000	-67.50000000	22.23034668
81.50000000	-67.50000000	15.92681885
82.00000000	-67.50000000	16.78906250
82.50000000	-67.50000000	16.56924438
83.00000000	-67.50000000	16.26684570
83.50000000	-67.50000000	15.87275696
84.00000000	-67.50000000	15.37803650
84.50000000	-67.50000000	14.78665161
85.00000000	-67.50000000	14.12052917
85.50000000	-67.50000000	13.41751099
86.00000000	-67.50000000	11.72358704
86.50000000	-67.50000000	11.07855225
87.00000000	-67.50000000	10.49993896
87.50000000	-67.50000000	9.97322083
88.00000000	-67.50000000	8.45118713
88.50000000	-67.50000000	7.86445618
89.00000000	-67.50000000	7.13574219
89.50000000	-67.50000000	5.19325256
90.00000000	-67.50000000	3.97944641
90.50000000	-67.50000000	2.45541382
91.00000000	-67.50000000	0.60473633
91.50000000	-67.50000000	-2.56803894
92.00000000	-67.50000000	-5.03486633
92.50000000	-67.50000000	-7.74005127
93.00000000	-67.50000000	-10.60227966
93.50000000	-67.50000000	-13.51719666
94.00000000	-67.50000000	-16.36518860
94.50000000	-67.50000000	-19.02499390
95.00000000	-67.50000000	-20.38926697
95.50000000	-67.50000000	-22.37971497
96.00000000	-67.50000000	-22.95951843
96.50000000	-67.50000000	-24.13755798
97.00000000	-67.50000000	-23.96209717
97.50000000	-67.50000000	-24.51094055
98.00000000	-67.50000000	-23.88258362
98.50000000	-67.50000000	-23.18582153
99.00000000	-67.50000000	-22.52789307
99.50000000	-67.50000000	-22.00599670
100.00000000	-67.50000000	-20.70191956
100.50000000	-67.50000000	-19.67562866
101.00000000	-67.50000000	-19.96437073
101.50000000	-67.50000000	-19.58514404
102.00000000	-67.50000000	-19.54066467
102.50000000	-67.50000000	-19.82341003
103.00000000	-67.50000000	-19.41796875
103.50000000	-67.50000000	-19.30253601
104.00000000	-67.50000000	-19.44534302
104.50000000	-67.50000000	-20.80313110
105.00000000	-67.50000000	-20.32286072
105.50000000	-67.50000000	-20.94291687
106.00000000	-67.50000000	-21.59417725
106.50000000	-67.50000000	-21.20324707
107.00000000	-67.50000000	-20.70198059
107.50000000	-67.50000000	-21.03749847
108.00000000	-67.50000000	-20.18081665
108.50000000	-67.50000000	-19.13268280
109.00000000	-67.50000000	-17.92440796
109.50000000	-67.50000000	-16.61111450
110.00000000	-67.50000000	-15.26025391
110.50000000	-67.50000000	-14.93525696
111.00000000	-67.50000000	-12.67940521
111.50000000	-67.50000000	-12.50419617
112.00000000	-67.50000000	-11.38507080
112.50000000	-67.50000000	-10.26348114
113.00000000	-67.50000000	-10.05628204
113.50000000	-67.50000000	-10.66985321
114.00000000	-67.50000000	-10.01640320
114.50000000	-67.50000000	-10.02980042
115.00000000	-67.50000000	-10.67545319
115.50000000	-67.50000000	-10.95619965
116.00000000	-67.50000000	-10.91129303
116.50000000	-67.50000000	-10.60655975
117.00000000	-67.50000000	-11.12294769
117.50000000	-67.50000000	-11.54161072
118.00000000	-67.50000000	-11.92806244
118.50000000	-67.50000000	-13.32208252
119.00000000	-67.50000000	-14.73552704
119.50000000	-67.50000000	-16.15281677
120.00000000	-67.50000000	-17.53644562
120.50000000	-67.50000000	-18.83441162
121.00000000	-67.50000000	-20.98874664
121.50000000	-67.50000000	-21.94690704
122.00000000	-67.50000000	-23.66931915
122.50000000	-67.50000000	-25.13488007
123.00000000	-67.50000000	-25.33840179
123.50000000	-67.50000000	-26.28628540
124.00000000	-67.50000000	-26.98941040
124.50000000	-67.50000000	-28.45748901
125.00000000	-67.50000000	-28.70237732
125.50000000	-67.50000000	-29.74825287
126.00000000	-67.50000000	-30.63968658
126.50000000	-67.50000000	-32.44462585
127.00000000	-67.50000000	-34.24726868
127.50000000	-67.50000000	-35.13093567
128.00000000	-67.50000000	-36.15292358
128.50000000	-67.50000000	-37.32202148
129.00000000	-67.50000000	-38.58621216
129.50000000	-67.50000000	-39.83453369
130.00000000	-67.50000000	-40.91609192
130.50000000	-67.50000000	-41.67207336
131.00000000	-67.50000000	-40.97441101
131.50000000	-67.50000000	-40.76448059
132.00000000	-67.50000000	-62.08204651
132.50000000	-67.50000000	-64.07432556
133.00000000	-67.50000000	-64.98194885
133.50000000	-67.50000000	-65.10728455
134.00000000	-67.50000000	-65.76998901
134.50000000	-67.50000000	-65.26252747
135.00000000	-67.50000000	-65.81802368
135.50000000	-67.50000000	-65.59364319
136.00000000	-67.50000000	-66.66760254
136.50000000	-67.50000000	-68.04945374
137.00000000	-67.50000000	-69.68830872
137.50000000	-67.50000000	-71.47856140
138.00000000	-67.50000000	-73.26319885
138.50000000	-67.50000000	-74.83596802
139.00000000	-67.50000000	-75.94851685
139.50000000	-67.50000000	-75.32907104
140.00000000	-67.50000000	-72.70735168
140.50000000	-67.50000000	-52.83950806
141.00000000	-67.50000000	-52.53146362
141.50000000	-67.50000000	-53.65318298
142.00000000	-67.50000000	-53.13940430
142.50000000	-67.50000000	-51.97792053
143.00000000	-67.50000000	-51.19258118
143.50000000	-67.50000000	-49.82937622
144.00000000	-67.50000000	-47.94435883
144.50000000	-67.50000000	-46.59995270
145.00000000	-67.50000000	-45.86390686
44.00000000	-68.00000000	-4.59767151
44.50000000	-68.00000000	-4.23304749
45.00000000	-68.00000000	-5.09020996
45.50000000	-68.00000000	-6.10029602
46.00000000	-68.00000000	-7.20399475
46.50000000	-68.00000000	-7.35926819
47.00000000	-68.00000000	-8.54504395
47.50000000	-68.00000000	-9.75814819
48.00000000	-68.00000000	-10.00576782
48.50000000	-68.00000000	-11.29608154
49.00000000	-68.00000000	-12.62852478
49.50000000	-68.00000000	-12.98608398
50.00000000	-68.00000000	-14.33221436
50.50000000	-68.00000000	-15.61180115
51.00000000	-68.00000000	-15.75511169
51.50000000	-68.00000000	-16.68626404
52.00000000	-68.00000000	-17.33128357
52.50000000	-68.00000000	-17.62722778
53.00000000	-68.00000000	-16.52903748
53.50000000	-68.00000000	-15.01391602
54.00000000	-68.00000000	-14.08215332
54.50000000	-68.00000000	-11.75337219
55.00000000	-68.00000000	-10.06109619
55.50000000	-68.00000000	-7.04801941
56.00000000	-68.00000000	-4.76339722
56.50000000	-68.00000000	-1.26258850
57.00000000	-68.00000000	1.39093018
57.50000000	-68.00000000	5.12483215
58.00000000	-68.00000000	7.85990906
58.50000000	-68.00000000	11.51443481
59.00000000	-68.00000000	14.00964355
59.50000000	-68.00000000	16.27368164
60.00000000	-68.00000000	19.24351501
60.50000000	-68.00000000	20.86486816
61.00000000	-68.00000000	22.09274292
61.50000000	-68.00000000	22.89002991
62.00000000	-68.00000000	24.22517395
62.50000000	-68.00000000	24.07279968
63.00000000	-68.00000000	23.41671753
63.50000000	-68.00000000	22.25695801
64.00000000	-68.00000000	21.61790466
64.50000000	-68.00000000	19.55401611
65.00000000	-68.00000000	17.15010071
65.50000000	-68.00000000	15.51431274
66.00000000	-68.00000000	12.76625061
66.50000000	-68.00000000	10.02319336
67.00000000	-68.00000000	7.38914490
67.50000000	-68.00000000	5.94998169
68.00000000	-68.00000000	3.77374268
68.50000000	-68.00000000	1.91233826
69.00000000	-68.00000000	0.40406799
69.50000000	-68.00000000	-0.72380066
80.50000000	-68.00000000	21.66735840
81.00000000	-68.00000000	22.31491089
81.50000000	-68.00000000	22.80525208
82.00000000	-68.00000000	23.14605713
82.50000000	-68.00000000	24.35113525
83.00000000	-68.00000000	23.43197632
83.50000000	-68.00000000	23.39450073
84.00000000	-68.00000000	23.23794556
84.50000000	-68.00000000	22.95736694
85.00000000	-68.00000000	22.54795837
85.50000000	-68.00000000	22.00738525
86.00000000	-68.00000000	20.33418274
86.50000000	-68.00000000	19.52473450
87.00000000	-68.00000000	17.56823730
87.50000000	-68.00000000	16.44398499
88.00000000	-68.00000000	15.12297058
88.50000000	-68.00000000	13.57478333
89.00000000	-68.00000000	10.77471924
89.50000000	-68.00000000	8.70985413
90.00000000	-68.00000000	6.38262939
90.50000000	-68.00000000	3.81114197
91.00000000	-68.00000000	1.02728271
91.50000000	-68.00000000	-1.92266846
92.00000000	-68.00000000	-4.97915649
92.50000000	-68.00000000	-8.06913757
93.00000000	-68.00000000	-11.10311890
93.50000000	-68.00000000	-13.97525024
94.00000000	-68.00000000	-16.57000732
94.50000000	-68.00000000	-18.77490234
95.00000000	-68.00000000	-19.49882507
95.50000000	-68.00000000	-20.68977356
96.00000000	-68.00000000	-21.34893799
96.50000000	-68.00000000	-20.53526306
97.00000000	-68.00000000	-20.35708618
97.50000000	-68.00000000	-18.95520020
98.00000000	-68.00000000	-17.48332214
98.50000000	-68.00000000	-16.09196472
99.00000000	-68.00000000	-14.91487122
99.50000000	-68.00000000	-14.06042480
100.00000000	-68.00000000	-12.60600281
100.50000000	-68.00000000	-12.59765625
101.00000000	-68.00000000	-13.05264282
101.50000000	-68.00000000	-12.96298218
102.00000000	-68.00000000	-13.29968262
102.50000000	-68.00000000	-14.02102661
103.00000000	-68.00000000	-15.07691956
103.50000000	-68.00000000	-16.41085815
104.00000000	-68.00000000	-17.96203613
104.50000000	-68.00000000	-18.66946411
105.00000000	-68.00000000	-19.47016907
105.50000000	-68.00000000	-20.29919434
106.00000000	-68.00000000	-21.09191895
106.50000000	-68.00000000	-21.79006958
107.00000000	-68.00000000	-21.34526062
107.50000000	-68.00000000	-20.72372437
108.00000000	-68.00000000	-19.91090393
108.50000000	-68.00000000	-19.91558838
109.00000000	-68.00000000	-18.76859283
109.50000000	-68.00000000	-17.51763153
110.00000000	-68.00000000	-17.21763611
110.50000000	-68.00000000	-15.91793823
111.00000000	-68.00000000	-15.64867401
111.50000000	-68.00000000	-14.41344452
112.00000000	-68.00000000	-14.18199158
112.50000000	-68.00000000	-13.89241791
113.00000000	-68.00000000	-13.45915985
113.50000000	-68.00000000	-12.78787231
114.00000000	-68.00000000	-12.79137421
114.50000000	-68.00000000	-12.40558624
115.00000000	-68.00000000	-11.60143280
115.50000000	-68.00000000	-11.39049530
116.00000000	-68.00000000	-10.82320404
116.50000000	-68.00000000	-9.98080444
117.00000000	-68.00000000	-8.96275330
117.50000000	-68.00000000	-8.87242126
118.00000000	-68.00000000	-8.80191040
118.50000000	-68.00000000	-9.81939697
119.00000000	-68.00000000	-9.96072388
119.50000000	-68.00000000	-11.22544861
120.00000000	-68.00000000	-11.57722473
120.50000000	-68.00000000	-12.95098877
121.00000000	-68.00000000	-14.26420593
121.50000000	-68.00000000	-15.43367004
122.00000000	-68.00000000	-16.38866425
122.50000000	-68.00000000	-18.08007050
123.00000000	-68.00000000	-18.48619843
123.50000000	-68.00000000	-19.61119843
124.00000000	-68.00000000	-20.47886658
124.50000000	-68.00000000	-21.12493896
125.00000000	-68.00000000	-22.59324646
125.50000000	-68.00000000	-23.93466187
126.00000000	-68.00000000	-25.20594788
126.50000000	-68.00000000	-26.46675110
127.00000000	-68.00000000	-27.77165222
127.50000000	-68.00000000	-29.15675354
128.00000000	-68.00000000	-29.62588501
128.50000000	-68.00000000	-31.14157104
129.00000000	-68.00000000	-32.62321472
129.50000000	-68.00000000	-32.95628357
130.00000000	-68.00000000	-33.01181030
130.50000000	-68.00000000	-32.67628479
131.00000000	-68.00000000	-32.88433838
131.50000000	-68.00000000	-31.64465332
132.00000000	-68.00000000	-52.05508423
132.50000000	-68.00000000	-53.29916382
133.00000000	-68.00000000	-53.62492371
133.50000000	-68.00000000	-54.30870056
134.00000000	-68.00000000	-53.61470032
134.50000000	-68.00000000	-53.76168823
135.00000000	-68.00000000	-54.90368652
135.50000000	-68.00000000	-56.12666321
136.00000000	-68.00000000	-56.45547485
136.50000000	-68.00000000	-58.86788940
137.00000000	-68.00000000	-60.30670166
137.50000000	-68.00000000	-62.68376160
138.00000000	-68.00000000	-63.87588501
138.50000000	-68.00000000	-65.72361755
139.00000000	-68.00000000	-67.03344727
139.50000000	-68.00000000	-68.58778381
140.00000000	-68.00000000	-68.16372681
140.50000000	-68.00000000	-66.55506897
141.00000000	-68.00000000	-48.59426880
141.50000000	-68.00000000	-48.16500854
142.00000000	-68.00000000	-48.20419312
142.50000000	-68.00000000	-47.69467163
143.00000000	-68.00000000	-47.65287781
143.50000000	-68.00000000	-48.11668396
144.00000000	-68.00000000	-47.13523865
144.50000000	-68.00000000	-46.76257324
145.00000000	-68.00000000	-46.05718994
145.50000000	-68.00000000	-46.08192444
146.00000000	-68.00000000	-45.89988708
146.50000000	-68.00000000	-45.56805420
147.00000000	-68.00000000	-46.13134766
41.50000000	-68.50000000	-6.15473938
42.00000000	-68.50000000	-5.82044983
42.50000000	-68.50000000	-6.02040100
43.00000000	-68.50000000	-6.68659973
43.50000000	-68.50000000	-7.74766541
44.00000000	-68.50000000	-8.13237000
44.50000000	-68.50000000	-8.77406311
45.00000000	-68.50000000	-9.61518860
45.50000000	-68.50000000	-9.61087036
46.00000000	-68.50000000	-10.73101807
46.50000000	-68.50000000	-10.96067810
47.00000000	-68.50000000	-12.29739380
47.50000000	-68.50000000	-12.74459839
48.00000000	-68.50000000	-13.30461121
48.50000000	-68.50000000	-14.97102356
49.00000000	-68.50000000	-15.72348022
49.50000000	-68.50000000	-16.52394104
50.00000000	-68.50000000	-17.31776428
50.50000000	-68.50000000	-19.03585815
51.00000000	-68.50000000	-19.60040283
51.50000000	-68.50000000	-19.93174744
52.00000000	-68.50000000	-19.95573425
52.50000000	-68.50000000	-20.61054993
53.00000000	-68.50000000	-19.85247803
53.50000000	-68.50000000	-18.65885925
54.00000000	-68.50000000	-17.02941895
54.50000000	-68.50000000	-14.98422241
55.00000000	-68.50000000	-12.55972290
55.50000000	-68.50000000	-9.80416870
56.00000000	-68.50000000	-6.77485657
56.50000000	-68.50000000	-4.53544617
57.00000000	-68.50000000	-1.15449524
57.50000000	-68.50000000	2.29682922
58.00000000	-68.50000000	4.74708557
58.50000000	-68.50000000	8.12724304
59.00000000	-68.50000000	11.37255859
59.50000000	-68.50000000	13.42311096
60.00000000	-68.50000000	15.22312927
60.50000000	-68.50000000	17.72102356
61.00000000	-68.50000000	18.87010193
61.50000000	-68.50000000	20.62934875
62.00000000	-68.50000000	20.96423340
62.50000000	-68.50000000	21.84860229
63.00000000	-68.50000000	21.26785278
63.50000000	-68.50000000	20.22407532
64.00000000	-68.50000000	18.74064636
64.50000000	-68.50000000	17.86625671
65.00000000	-68.50000000	15.67626953
65.50000000	-68.50000000	13.26837158
66.00000000	-68.50000000	11.75376892
66.50000000	-68.50000000	9.24629211
67.00000000	-68.50000000	6.85253906
67.50000000	-68.50000000	4.66490173
68.00000000	-68.50000000	2.75926208
68.50000000	-68.50000000	1.19515991
69.00000000	-68.50000000	0.01580811
69.50000000	-68.50000000	-0.75120544
70.00000000	-68.50000000	-1.09291077
79.00000000	-68.50000000	23.73374939
79.50000000	-68.50000000	25.12739563
80.00000000	-68.50000000	26.47865295
80.50000000	-68.50000000	27.73503113
81.00000000	-68.50000000	28.85093689
81.50000000	-68.50000000	29.79281616
82.00000000	-68.50000000	30.54394531
82.50000000	-68.50000000	31.10205078
83.00000000	-68.50000000	31.47496033
83.50000000	-68.50000000	30.67395020
84.00000000	-68.50000000	30.70684814
84.50000000	-68.50000000	30.57545471
85.00000000	-68.50000000	29.27195740
85.50000000	-68.50000000	28.78175354
86.00000000	-68.50000000	28.08720398
86.50000000	-68.50000000	27.16793823
87.00000000	-68.50000000	25.00161743
87.50000000	-68.50000000	23.56636047
88.00000000	-68.50000000	21.84393311
88.50000000	-68.50000000	19.82299805
89.00000000	-68.50000000	17.50311279
89.50000000	-68.50000000	14.89659119
90.00000000	-68.50000000	12.02960205
90.50000000	-68.50000000	8.94436646
91.00000000	-68.50000000	5.69813538
91.50000000	-68.50000000	2.36065674
92.00000000	-68.50000000	-0.98785400
92.50000000	-68.50000000	-4.25585938
93.00000000	-68.50000000	-7.34056091
93.50000000	-68.50000000	-10.13043213
94.00000000	-68.50000000	-11.51164246
94.50000000	-68.50000000	-13.38165283
95.00000000	-68.50000000	-14.66787720
95.50000000	-68.50000000	-14.34458923
96.00000000	-68.50000000	-14.44325256
96.50000000	-68.50000000	-14.05349731
97.00000000	-68.50000000	-11.31439209
97.50000000	-68.50000000	-10.39599609
98.00000000	-68.50000000	-8.47715759
98.50000000	-68.50000000	-6.72776794
99.00000000	-68.50000000	-5.29516602
99.50000000	-68.50000000	-4.29499817
100.00000000	-68.50000000	-3.80700684
100.50000000	-68.50000000	-2.87345886
101.00000000	-68.50000000	-3.49829102
101.50000000	-68.50000000	-3.65184021
102.00000000	-68.50000000	-5.27842712
102.50000000	-68.50000000	-6.30503845
103.00000000	-68.50000000	-7.65135193
103.50000000	-68.50000000	-9.23590088
104.00000000	-68.50000000	-10.97909546
104.50000000	-68.50000000	-12.80560303
105.00000000	-68.50000000	-14.64739990
105.50000000	-68.50000000	-15.44769287
106.00000000	-68.50000000	-17.16154480
106.50000000	-68.50000000	-17.75642395
107.00000000	-68.50000000	-18.21400452
107.50000000	-68.50000000	-17.53141785
108.00000000	-68.50000000	-17.72045898
108.50000000	-68.50000000	-16.80432129
109.00000000	-68.50000000	-16.81256104
109.50000000	-68.50000000	-15.77478027
110.00000000	-68.50000000	-14.71432495
110.50000000	-68.50000000	-14.64120483
111.00000000	-68.50000000	-13.54814148
111.50000000	-68.50000000	-13.40727234
112.00000000	-68.50000000	-13.16721344
112.50000000	-68.50000000	-12.75688171
113.00000000	-68.50000000	-12.09379578
113.50000000	-68.50000000	-12.09837341
114.00000000	-68.50000000	-11.70877075
114.50000000	-68.50000000	-10.89318085
115.00000000	-68.50000000	-9.65697479
115.50000000	-68.50000000	-9.04251862
116.00000000	-68.50000000	-7.12221527
116.50000000	-68.50000000	-5.98808289
117.00000000	-68.50000000	-5.74085999
117.50000000	-68.50000000	-4.47904968
118.00000000	-68.50000000	-4.29028320
118.50000000	-68.50000000	-4.24217224
119.00000000	-68.50000000	-4.37496948
119.50000000	-68.50000000	-4.69506836
120.00000000	-68.50000000	-5.17297363
120.50000000	-68.50000000	-5.74427795
121.00000000	-68.50000000	-7.31825256
121.50000000	-68.50000000	-8.79341125
122.00000000	-68.50000000	-10.07229614
122.50000000	-68.50000000	-11.07641602
123.00000000	-68.50000000	-11.75952148
123.50000000	-68.50000000	-13.11314392
124.00000000	-68.50000000	-14.16333008
124.50000000	-68.50000000	-14.96284485
125.00000000	-68.50000000	-16.58093262
125.50000000	-68.50000000	-17.09254456
126.00000000	-68.50000000	-18.56892395
126.50000000	-68.50000000	-19.06826782
127.00000000	-68.50000000	-20.62602234
127.50000000	-68.50000000	-21.24621582
128.00000000	-68.50000000	-21.89826965
128.50000000	-68.50000000	-22.51921082
129.00000000	-68.50000000	-23.02330017
129.50000000	-68.50000000	-23.31610107
130.00000000	-68.50000000	-23.31233215
130.50000000	-68.50000000	-22.95851135
131.00000000	-68.50000000	-22.25251770
131.50000000	-68.50000000	-20.25672913
132.00000000	-68.50000000	-38.10046387
132.50000000	-68.50000000	-39.96705627
133.00000000	-68.50000000	-41.07107544
133.50000000	-68.50000000	-41.62770081
134.00000000	-68.50000000	-41.82304382
134.50000000	-68.50000000	-42.79336548
135.00000000	-68.50000000	-43.61695862
135.50000000	-68.50000000	-44.31898499
136.00000000	-68.50000000	-45.88197327
136.50000000	-68.50000000	-48.26029968
137.00000000	-68.50000000	-50.38836670
137.50000000	-68.50000000	-52.18449402
138.00000000	-68.50000000	-54.55026245
138.50000000	-68.50000000	-55.36991882
139.00000000	-68.50000000	-56.50999451
139.50000000	-68.50000000	-57.82330322
140.00000000	-68.50000000	-58.15946960
140.50000000	-68.50000000	-58.37709045
141.00000000	-68.50000000	-56.35702515
141.50000000	-68.50000000	-39.01211548
142.00000000	-68.50000000	-39.29055786
142.50000000	-68.50000000	-39.17477417
143.00000000	-68.50000000	-39.67675781
143.50000000	-68.50000000	-39.82859802
144.00000000	-68.50000000	-39.67523193
144.50000000	-68.50000000	-39.26945496
145.00000000	-68.50000000	-39.66687012
145.50000000	-68.50000000	-39.92225647
146.00000000	-68.50000000	-40.08132935
146.50000000	-68.50000000	-41.17283630
147.00000000	-68.50000000	-42.20195007
147.50000000	-68.50000000	-42.14720154
148.00000000	-68.50000000	-42.95985413
148.50000000	-68.50000000	-42.56938171
149.00000000	-68.50000000	-42.89314270
149.50000000	-68.50000000	-41.85325623
150.00000000	-68.50000000	-40.39338684
150.50000000	-68.50000000	-38.49299622
151.00000000	-68.50000000	-35.17524719
152.00000000	-68.50000000	-27.61508179
152.50000000	-68.50000000	-22.64247131
153.00000000	-68.50000000	-16.76918030
153.50000000	-68.50000000	-12.18089294
154.00000000	-68.50000000	-6.06224060
154.50000000	-68.50000000	-0.58714294
33.00000000	-69.00000000	-19.12297058
33.50000000	-69.00000000	-20.54847717
34.00000000	-69.00000000	-20.71960449
34.50000000	-69.00000000	-21.50940704
40.00000000	-69.00000000	-6.08627319
40.50000000	-69.00000000	-5.84898376
41.00000000	-69.00000000	-4.31495667
41.50000000	-69.00000000	-4.50704956
42.00000000	-69.00000000	-4.39913940
42.50000000	-69.00000000	-4.92767334
43.00000000	-69.00000000	-6.00407410
43.50000000	-69.00000000	-7.52770996
44.00000000	-69.00000000	-8.39805603
44.50000000	-69.00000000	-9.52520752
45.00000000	-69.00000000	-10.83676147
45.50000000	-69.00000000	-11.28315735
46.00000000	-69.00000000	-12.83741760
46.50000000	-69.00000000	-13.49194336
47.00000000	-69.00000000	-15.24986267
47.50000000	-69.00000000	-16.11653137
48.00000000	-69.00000000	-17.08978271
48.50000000	-69.00000000	-18.15380859
49.00000000	-69.00000000	-19.27471924
49.50000000	-69.00000000	-20.40115356
50.00000000	-69.00000000	-21.46740723
50.50000000	-69.00000000	-22.39923096
51.00000000	-69.00000000	-23.12065125
51.50000000	-69.00000000	-23.56188965
52.00000000	-69.00000000	-23.66514587
52.50000000	-69.00000000	-23.38960266
53.00000000	-69.00000000	-21.71397400
53.50000000	-69.00000000	-20.63745117
54.00000000	-69.00000000	-19.17814636
54.50000000	-69.00000000	-17.37005615
55.00000000	-69.00000000	-14.25871277
55.50000000	-69.00000000	-12.89631653
56.00000000	-69.00000000	-9.33787537
56.50000000	-69.00000000	-6.63859558
57.00000000	-69.00000000	-3.85160828
57.50000000	-69.00000000	-1.02748108
58.00000000	-69.00000000	1.78730774
58.50000000	-69.00000000	4.54919434
59.00000000	-69.00000000	7.21749878
59.50000000	-69.00000000	8.75259399
60.00000000	-69.00000000	11.11430359
60.50000000	-69.00000000	13.26190186
61.00000000	-69.00000000	14.15553284
61.50000000	-69.00000000	15.75871277
62.00000000	-69.00000000	16.04035950
62.50000000	-69.00000000	16.97750854
63.00000000	-69.00000000	16.55940247
63.50000000	-69.00000000	16.78938293
64.00000000	-69.00000000	15.68649292
64.50000000	-69.00000000	14.28836060
65.00000000	-69.00000000	12.65245056
65.50000000	-69.00000000	11.85408020
66.00000000	-69.00000000	9.98147583
66.50000000	-69.00000000	8.12928772
67.00000000	-69.00000000	6.39199829
67.50000000	-69.00000000	4.85711670
68.00000000	-69.00000000	3.59950256
68.50000000	-69.00000000	2.67742920
69.00000000	-69.00000000	2.13085938
69.50000000	-69.00000000	1.98080444
70.00000000	-69.00000000	2.22901917
70.50000000	-69.00000000	1.86146545
71.00000000	-69.00000000	2.85092163
71.50000000	-69.00000000	4.16142273
72.00000000	-69.00000000	5.75195312
72.50000000	-69.00000000	7.57699585
73.00000000	-69.00000000	8.58802795
73.50000000	-69.00000000	9.73445129
78.00000000	-69.00000000	24.87516785
78.50000000	-69.00000000	26.18014526
79.00000000	-69.00000000	27.52883911
79.50000000	-69.00000000	28.89730835
80.00000000	-69.00000000	30.24870300
80.50000000	-69.00000000	31.54110718
81.00000000	-69.00000000	31.73294067
81.50000000	-69.00000000	32.78950500
82.00000000	-69.00000000	33.68768311
82.50000000	-69.00000000	34.41757202
83.00000000	-69.00000000	34.98150635
83.50000000	-69.00000000	34.38719177
84.00000000	-69.00000000	34.64183044
84.50000000	-69.00000000	34.74819946
85.00000000	-69.00000000	33.70077515
85.50000000	-69.00000000	33.48474121
86.00000000	-69.00000000	33.07586670
86.50000000	-69.00000000	32.44407654
87.00000000	-69.00000000	31.55761719
87.50000000	-69.00000000	30.38581848
88.00000000	-69.00000000	28.90264893
88.50000000	-69.00000000	27.09135437
89.00000000	-69.00000000	24.94718933
89.50000000	-69.00000000	22.47979736
90.00000000	-69.00000000	20.71853638
90.50000000	-69.00000000	16.71156311
91.00000000	-69.00000000	14.52035522
91.50000000	-69.00000000	11.22059631
92.00000000	-69.00000000	7.90200806
92.50000000	-69.00000000	4.66583252
93.00000000	-69.00000000	2.62260437
93.50000000	-69.00000000	-0.11250305
94.00000000	-69.00000000	-2.42916870
94.50000000	-69.00000000	-4.23428345
95.00000000	-69.00000000	-4.46583557
95.50000000	-69.00000000	-5.10676575
96.00000000	-69.00000000	-4.19331360
96.50000000	-69.00000000	-2.81431580
97.00000000	-69.00000000	-2.10054016
97.50000000	-69.00000000	-0.20999146
98.00000000	-69.00000000	1.68618774
98.50000000	-69.00000000	3.41983032
99.00000000	-69.00000000	4.84091187
99.50000000	-69.00000000	5.82859802
100.00000000	-69.00000000	6.29791260
100.50000000	-69.00000000	6.20330811
101.00000000	-69.00000000	6.54119873
101.50000000	-69.00000000	5.34848022
102.00000000	-69.00000000	4.69267273
102.50000000	-69.00000000	3.65945435
103.00000000	-69.00000000	1.34339905
103.50000000	-69.00000000	-0.16017151
104.00000000	-69.00000000	-2.76298523
104.50000000	-69.00000000	-4.38963318
105.00000000	-69.00000000	-5.97975159
105.50000000	-69.00000000	-7.49143982
106.00000000	-69.00000000	-7.90423584
106.50000000	-69.00000000	-9.21893311
107.00000000	-69.00000000	-9.45349121
107.50000000	-69.00000000	-10.64007568
108.00000000	-69.00000000	-10.81675720
108.50000000	-69.00000000	-11.01756287
109.00000000	-69.00000000	-10.26441956
109.50000000	-69.00000000	-10.56140137
110.00000000	-69.00000000	-10.89079285
110.50000000	-69.00000000	-10.21484375
111.00000000	-69.00000000	-10.47906494
111.50000000	-69.00000000	-10.61405945
112.00000000	-69.00000000	-9.54002380
112.50000000	-69.00000000	-10.17233276
113.00000000	-69.00000000	-9.43322754
113.50000000	-69.00000000	-8.26583862
114.00000000	-69.00000000	-7.64511108
114.50000000	-69.00000000	-6.58285522
115.00000000	-69.00000000	-5.12724304
115.50000000	-69.00000000	-4.35627747
116.00000000	-69.00000000	-2.36589050
116.50000000	-69.00000000	-1.25428772
117.00000000	-69.00000000	-0.11129761
117.50000000	-69.00000000	0.98709106
118.00000000	-69.00000000	0.98052979
118.50000000	-69.00000000	1.82496643
119.00000000	-69.00000000	1.49519348
119.50000000	-69.00000000	0.98847961
120.00000000	-69.00000000	0.33004761
120.50000000	-69.00000000	-0.42393494
121.00000000	-69.00000000	-2.19024658
121.50000000	-69.00000000	-2.86814880
122.00000000	-69.00000000	-4.35494995
122.50000000	-69.00000000	-5.56027222
123.00000000	-69.00000000	-6.42333984
123.50000000	-69.00000000	-7.92390442
124.00000000	-69.00000000	-9.08361816
124.50000000	-69.00000000	-9.95840454
125.00000000	-69.00000000	-10.62725830
125.50000000	-69.00000000	-10.17669678
126.00000000	-69.00000000	-10.68455505
126.50000000	-69.00000000	-11.20672607
127.00000000	-69.00000000	-11.76913452
127.50000000	-69.00000000	-12.36451721
128.00000000	-69.00000000	-12.95651245
128.50000000	-69.00000000	-12.48925781
129.00000000	-69.00000000	-11.90025330
129.50000000	-69.00000000	-12.13464355
130.00000000	-69.00000000	-11.15939331
130.50000000	-69.00000000	-10.97470093
131.00000000	-69.00000000	-9.62216187
131.50000000	-69.00000000	-9.18656921
132.00000000	-69.00000000	-7.79022217
132.50000000	-69.00000000	-9.57885742
133.00000000	-69.00000000	-25.70408630
133.50000000	-69.00000000	-27.30335999
134.00000000	-69.00000000	-28.48307800
134.50000000	-69.00000000	-30.30917358
135.00000000	-69.00000000	-31.80519104
135.50000000	-69.00000000	-33.95732117
136.00000000	-69.00000000	-35.72393799
136.50000000	-69.00000000	-37.04510498
137.00000000	-69.00000000	-39.85078430
137.50000000	-69.00000000	-41.06555176
138.00000000	-69.00000000	-42.60903931
138.50000000	-69.00000000	-45.39616394
139.00000000	-69.00000000	-46.33917236
139.50000000	-69.00000000	-47.34977722
140.00000000	-69.00000000	-47.34321594
140.50000000	-69.00000000	-48.24362183
141.00000000	-69.00000000	-46.98927307
141.50000000	-69.00000000	-46.53659058
142.00000000	-69.00000000	-31.86233521
142.50000000	-69.00000000	-29.96359253
143.00000000	-69.00000000	-29.85662842
143.50000000	-69.00000000	-30.57342529
144.00000000	-69.00000000	-31.15678406
144.50000000	-69.00000000	-31.65461731
145.00000000	-69.00000000	-32.11502075
145.50000000	-69.00000000	-32.57853699
146.00000000	-69.00000000	-33.06996155
146.50000000	-69.00000000	-34.58987427
147.00000000	-69.00000000	-36.10868835
147.50000000	-69.00000000	-36.56401062
148.00000000	-69.00000000	-37.86399841
148.50000000	-69.00000000	-37.89759827
149.00000000	-69.00000000	-37.54832458
149.50000000	-69.00000000	-36.71052551
150.00000000	-69.00000000	-35.30715942
150.50000000	-69.00000000	-33.30236816
151.00000000	-69.00000000	-29.70716858
151.50000000	-69.00000000	-25.58052063
152.00000000	-69.00000000	-20.02839661
152.50000000	-69.00000000	-15.19689941
153.00000000	-69.00000000	-8.25929260
153.50000000	-69.00000000	-2.40931702
154.00000000	-69.00000000	5.14454651
154.50000000	-69.00000000	11.18884277
155.00000000	-69.00000000	17.50942993
155.50000000	-69.00000000	23.88916016
156.00000000	-69.00000000	30.10964966
156.50000000	-69.00000000	34.97517395
14.50000000	-69.50000000	-41.81447601
15.00000000	-69.50000000	-41.82272339
29.50000000	-69.50000000	-12.21995544
30.00000000	-69.50000000	-11.89118958
30.50000000	-69.50000000	-11.56987000
31.00000000	-69.50000000	-12.28334045
31.50000000	-69.50000000	-12.04862976
32.00000000	-69.50000000	-12.86230469
32.50000000	-69.50000000	-12.69296265
33.00000000	-69.50000000	-13.47956848
33.50000000	-69.50000000	-14.13536072
34.00000000	-69.50000000	-14.55516052
34.50000000	-69.50000000	-15.62680054
35.00000000	-69.50000000	-15.24594116
35.50000000	-69.50000000	-15.32817078
36.00000000	-69.50000000	-14.82110596
37.50000000	-69.50000000	-11.91725159
40.00000000	-69.50000000	-2.33604431
40.50000000	-69.50000000	-1.20419312
41.00000000	-69.50000000	0.18312073
41.50000000	-69.50000000	-0.22615051
42.00000000	-69.50000000	-0.42778015
42.50000000	-69.50000000	-1.36804199
43.00000000	-69.50000000	-2.95443726
43.50000000	-69.50000000	-5.07128906
44.00000000	-69.50000000	-6.59487915
44.50000000	-69.50000000	-8.40902710
45.00000000	-69.50000000	-10.41709900
45.50000000	-69.50000000	-11.54745483
46.00000000	-69.50000000	-13.75526428
46.50000000	-69.50000000	-15.01844788
47.00000000	-69.50000000	-16.32977295
47.50000000	-69.50000000	-18.68618774
48.00000000	-69.50000000	-19.07922363
48.50000000	-69.50000000	-21.48654175
49.00000000	-69.50000000	-22.86915588
49.50000000	-69.50000000	-23.17233276
50.00000000	-69.50000000	-24.33056641
50.50000000	-69.50000000	-25.27435303
51.00000000	-69.50000000	-25.93946838
51.50000000	-69.50000000	-26.27403259
52.00000000	-69.50000000	-25.24430847
52.50000000	-69.50000000	-24.83724976
53.00000000	-69.50000000	-24.06057739
53.50000000	-69.50000000	-21.94075012
54.00000000	-69.50000000	-20.51937866
54.50000000	-69.50000000	-18.84829712
55.00000000	-69.50000000	-15.98468018
55.50000000	-69.50000000	-13.98480225
56.00000000	-69.50000000	-10.89988708
56.50000000	-69.50000000	-8.77330017
57.00000000	-69.50000000	-5.64002991
57.50000000	-69.50000000	-3.52601624
58.00000000	-69.50000000	-1.45025635
58.50000000	-69.50000000	0.57237244
59.00000000	-69.50000000	2.52790833
59.50000000	-69.50000000	4.40129089
60.00000000	-69.50000000	6.17408752
60.50000000	-69.50000000	7.82417297
61.00000000	-69.50000000	9.32716370
61.50000000	-69.50000000	9.65968323
62.00000000	-69.50000000	10.80140686
62.50000000	-69.50000000	10.73803711
63.00000000	-69.50000000	11.46450806
63.50000000	-69.50000000	10.98687744
64.00000000	-69.50000000	11.32232666
64.50000000	-69.50000000	10.49908447
65.00000000	-69.50000000	9.55720520
65.50000000	-69.50000000	8.54753113
66.00000000	-69.50000000	7.53010559
66.50000000	-69.50000000	6.57095337
67.00000000	-69.50000000	5.73791504
67.50000000	-69.50000000	6.09620667
68.00000000	-69.50000000	5.70333862
68.50000000	-69.50000000	4.60409546
69.00000000	-69.50000000	4.82658386
69.50000000	-69.50000000	5.37901306
70.00000000	-69.50000000	6.25076294
70.50000000	-69.50000000	6.41430664
71.00000000	-69.50000000	7.83026123
71.50000000	-69.50000000	9.45178223
72.00000000	-69.50000000	10.23019409
72.50000000	-69.50000000	12.12075806
73.00000000	-69.50000000	13.08424377
73.50000000	-69.50000000	15.08979797
74.00000000	-69.50000000	16.11471558
76.00000000	-69.50000000	21.19337463
76.50000000	-69.50000000	22.20072937
77.00000000	-69.50000000	24.21052551
77.50000000	-69.50000000	25.22882080
78.00000000	-69.50000000	26.25910950
78.50000000	-69.50000000	26.29985046
79.00000000	-69.50000000	27.34410095
79.50000000	-69.50000000	28.38008118
80.00000000	-69.50000000	29.39292908
80.50000000	-69.50000000	30.36689758
81.00000000	-69.50000000	31.28927612
81.50000000	-69.50000000	31.15156555
82.00000000	-69.50000000	31.95202637
82.50000000	-69.50000000	32.69664001
83.00000000	-69.50000000	33.39254761
83.50000000	-69.50000000	34.04496765
84.00000000	-69.50000000	34.65618896
84.50000000	-69.50000000	34.22030640
85.00000000	-69.50000000	34.71899414
85.50000000	-69.50000000	35.11987305
86.00000000	-69.50000000	35.37884521
86.50000000	-69.50000000	35.44299316
87.00000000	-69.50000000	35.25454712
87.50000000	-69.50000000	35.75765991
88.00000000	-69.50000000	34.90602112
88.50000000	-69.50000000	33.66853333
89.00000000	-69.50000000	32.03358459
89.50000000	-69.50000000	30.01127625
90.00000000	-69.50000000	28.63211060
90.50000000	-69.50000000	25.94700623
91.00000000	-69.50000000	23.02606201
91.50000000	-69.50000000	19.95138550
92.00000000	-69.50000000	17.81405640
92.50000000	-69.50000000	14.71241760
93.00000000	-69.50000000	11.75018311
93.50000000	-69.50000000	10.03343201
94.00000000	-69.50000000	7.66349792
94.50000000	-69.50000000	5.72674561
95.00000000	-69.50000000	5.28340149
95.50000000	-69.50000000	5.36001587
96.00000000	-69.50000000	4.94293213
96.50000000	-69.50000000	5.97608948
97.00000000	-69.50000000	7.36511230
97.50000000	-69.50000000	8.98730469
98.00000000	-69.50000000	10.70159912
98.50000000	-69.50000000	11.35803223
99.00000000	-69.50000000	13.81047058
99.50000000	-69.50000000	14.93241882
100.00000000	-69.50000000	15.62557983
100.50000000	-69.50000000	15.82820129
101.00000000	-69.50000000	16.52066040
101.50000000	-69.50000000	15.72274780
102.00000000	-69.50000000	15.48724365
102.50000000	-69.50000000	13.89082336
103.00000000	-69.50000000	12.02178955
103.50000000	-69.50000000	10.96981812
104.00000000	-69.50000000	8.81663513
104.50000000	-69.50000000	7.62991333
105.00000000	-69.50000000	6.45722961
105.50000000	-69.50000000	5.32247925
106.00000000	-69.50000000	4.22500610
106.50000000	-69.50000000	3.14179993
107.00000000	-69.50000000	2.03213501
107.50000000	-69.50000000	0.84925842
108.00000000	-69.50000000	0.55375671
108.50000000	-69.50000000	-0.87600708
109.00000000	-69.50000000	-1.43745422
109.50000000	-69.50000000	-2.10020447
110.00000000	-69.50000000	-2.80795288
110.50000000	-69.50000000	-3.48461914
111.00000000	-69.50000000	-4.04164124
111.50000000	-69.50000000	-4.38540649
112.00000000	-69.50000000	-4.42480469
112.50000000	-69.50000000	-5.08010864
113.00000000	-69.50000000	-4.29243469
113.50000000	-69.50000000	-3.03504944
114.00000000	-69.50000000	-2.31913757
114.50000000	-69.50000000	-1.19422913
115.00000000	-69.50000000	0.25866699
115.50000000	-69.50000000	1.93833923
116.00000000	-69.50000000	2.73991394
116.50000000	-69.50000000	4.57049561
117.00000000	-69.50000000	5.35719299
117.50000000	-69.50000000	6.05029297
118.00000000	-69.50000000	6.62075806
118.50000000	-69.50000000	6.05506897
119.00000000	-69.50000000	6.35235596
119.50000000	-69.50000000	5.52391052
120.00000000	-69.50000000	4.59753418
120.50000000	-69.50000000	3.62255859
121.00000000	-69.50000000	2.67042542
121.50000000	-69.50000000	1.82798767
122.00000000	-69.50000000	0.18815613
122.50000000	-69.50000000	-1.16337585
123.00000000	-69.50000000	-2.16310120
123.50000000	-69.50000000	-2.78330994
124.00000000	-69.50000000	-3.03517151
124.50000000	-69.50000000	-3.96588135
125.00000000	-69.50000000	-3.64793396
125.50000000	-69.50000000	-3.16464233
126.00000000	-69.50000000	-3.59385681
126.50000000	-69.50000000	-2.99588013
127.00000000	-69.50000000	-2.40609741
127.50000000	-69.50000000	-2.83305359
128.00000000	-69.50000000	-2.26428223
128.50000000	-69.50000000	-1.67576599
129.00000000	-69.50000000	-1.04295349
129.50000000	-69.50000000	-1.35243225
130.00000000	-69.50000000	0.39122009
130.50000000	-69.50000000	0.16146851
131.00000000	-69.50000000	1.90910339
131.50000000	-69.50000000	2.56437683
132.00000000	-69.50000000	3.04428101
132.50000000	-69.50000000	3.26092529
133.00000000	-69.50000000	4.13081360
133.50000000	-69.50000000	1.58447266
134.00000000	-69.50000000	-16.42570496
134.50000000	-69.50000000	-17.92201233
135.00000000	-69.50000000	-20.90122986
135.50000000	-69.50000000	-22.33686829
136.00000000	-69.50000000	-25.18409729
136.50000000	-69.50000000	-27.38612366
137.00000000	-69.50000000	-28.87950134
137.50000000	-69.50000000	-31.59854126
138.00000000	-69.50000000	-33.47720337
138.50000000	-69.50000000	-34.45234680
139.00000000	-69.50000000	-36.46626282
139.50000000	-69.50000000	-37.46876526
140.00000000	-69.50000000	-38.41862488
140.50000000	-69.50000000	-39.28526306
141.00000000	-69.50000000	-40.04913330
141.50000000	-69.50000000	-39.70101929
142.00000000	-69.50000000	-40.24172974
142.50000000	-69.50000000	-39.68190002
143.00000000	-69.50000000	-40.04071045
143.50000000	-69.50000000	-39.34526062
144.00000000	-69.50000000	-37.62835693
144.50000000	-69.50000000	-25.92610168
145.00000000	-69.50000000	-28.27392578
145.50000000	-69.50000000	-27.70089722
146.00000000	-69.50000000	-28.22080994
146.50000000	-69.50000000	-28.82417297
147.00000000	-69.50000000	-29.47119141
147.50000000	-69.50000000	-31.08859253
148.00000000	-69.50000000	-31.57258606
148.50000000	-69.50000000	-31.79701233
149.00000000	-69.50000000	-32.62669373
149.50000000	-69.50000000	-30.93588257
150.00000000	-69.50000000	-29.62680054
150.50000000	-69.50000000	-27.64370728
151.00000000	-69.50000000	-23.97967529
151.50000000	-69.50000000	-19.67686462
152.00000000	-69.50000000	-13.82688904
152.50000000	-69.50000000	-7.56495667
153.00000000	-69.50000000	-1.05871582
153.50000000	-69.50000000	5.50508118
154.00000000	-69.50000000	12.92498779
154.50000000	-69.50000000	19.98368835
155.00000000	-69.50000000	27.45256042
155.50000000	-69.50000000	35.09286499
156.00000000	-69.50000000	41.66020203
156.50000000	-69.50000000	47.89819336
157.00000000	-69.50000000	52.56300354
157.50000000	-69.50000000	55.44340515
158.00000000	-69.50000000	58.39253235
158.50000000	-69.50000000	62.38314819
159.00000000	-69.50000000	64.53657532
1.00000000	-70.00000000	-23.64044952
2.00000000	-70.00000000	-26.50025940
6.00000000	-70.00000000	-29.47387695
8.50000000	-70.00000000	-33.67983246
9.00000000	-70.00000000	-34.32893372
10.00000000	-70.00000000	-36.54804230
10.50000000	-70.00000000	-38.06985474
12.00000000	-70.00000000	-40.18430328
13.00000000	-70.00000000	-41.50270081
13.50000000	-70.00000000	-41.48953247
14.00000000	-70.00000000	-41.33113861
14.50000000	-70.00000000	-42.01245880
15.00000000	-70.00000000	-41.53381348
15.50000000	-70.00000000	-40.91490173
16.00000000	-70.00000000	-40.19200897
16.50000000	-70.00000000	-40.40949249
17.00000000	-70.00000000	-39.60657501
17.50000000	-70.00000000	-38.80417633
18.00000000	-70.00000000	-37.99604797
18.50000000	-70.00000000	-37.14498138
19.00000000	-70.00000000	-36.18843842
19.50000000	-70.00000000	-35.05222321
20.00000000	-70.00000000	-33.66636658
20.50000000	-70.00000000	-32.98111725
21.00000000	-70.00000000	-30.97595215
27.50000000	-70.00000000	-7.48092651
28.00000000	-70.00000000	-6.56761169
28.50000000	-70.00000000	-6.63450623
29.00000000	-70.00000000	-5.65071106
29.50000000	-70.00000000	-5.61270142
30.00000000	-70.00000000	-5.53958130
30.50000000	-70.00000000	-4.46482849
31.00000000	-70.00000000	-4.42399597
31.50000000	-70.00000000	-4.44027710
32.00000000	-70.00000000	-4.51393127
32.50000000	-70.00000000	-4.61654663
33.00000000	-70.00000000	-5.68852234
33.50000000	-70.00000000	-6.64584351
34.00000000	-70.00000000	-6.39244080
34.50000000	-70.00000000	-6.83555603
35.00000000	-70.00000000	-6.89834595
35.50000000	-70.00000000	-7.53190613
36.00000000	-70.00000000	-6.72108459
36.50000000	-70.00000000	-6.48701477
37.00000000	-70.00000000	-4.88525391
37.50000000	-70.00000000	-4.00395203
38.00000000	-70.00000000	-2.96121216
38.50000000	-70.00000000	-0.90048218
39.00000000	-70.00000000	1.01834106
39.50000000	-70.00000000	2.62930298
40.00000000	-70.00000000	3.77429199
40.50000000	-70.00000000	3.31816101
41.00000000	-70.00000000	4.16244507
41.50000000	-70.00000000	4.25334167
42.00000000	-70.00000000	2.58459473
42.50000000	-70.00000000	1.19459534
43.00000000	-70.00000000	0.15939331
43.50000000	-70.00000000	-2.41929626
44.00000000	-70.00000000	-4.42681885
44.50000000	-70.00000000	-6.74925232
45.00000000	-70.00000000	-9.28292847
45.50000000	-70.00000000	-11.94326782
46.00000000	-70.00000000	-13.66754150
46.50000000	-70.00000000	-15.41465759
47.00000000	-70.00000000	-17.15959167
47.50000000	-70.00000000	-19.88578796
48.00000000	-70.00000000	-21.57495117
48.50000000	-70.00000000	-22.20060730
49.00000000	-70.00000000	-23.72406006
49.50000000	-70.00000000	-25.09565735
50.00000000	-70.00000000	-26.25825500
50.50000000	-70.00000000	-27.15484619
51.00000000	-70.00000000	-26.73611450
51.50000000	-70.00000000	-26.96768188
52.00000000	-70.00000000	-26.83410645
52.50000000	-70.00000000	-25.34068298
53.00000000	-70.00000000	-24.51187134
53.50000000	-70.00000000	-22.38851929
54.00000000	-70.00000000	-21.02374268
54.50000000	-70.00000000	-19.47738647
55.00000000	-70.00000000	-16.81121826
55.50000000	-70.00000000	-15.08409119
56.00000000	-70.00000000	-12.34704590
56.50000000	-70.00000000	-10.64048767
57.00000000	-70.00000000	-7.99238586
57.50000000	-70.00000000	-6.41886902
58.00000000	-70.00000000	-3.92535400
58.50000000	-70.00000000	-2.51010132
59.00000000	-70.00000000	-1.16767883
59.50000000	-70.00000000	0.10693359
60.00000000	-70.00000000	2.31677246
60.50000000	-70.00000000	3.46136475
61.00000000	-70.00000000	3.53755188
61.50000000	-70.00000000	4.54103088
62.00000000	-70.00000000	5.46875000
62.50000000	-70.00000000	6.32035828
63.00000000	-70.00000000	6.10054016
63.50000000	-70.00000000	5.82057190
64.00000000	-70.00000000	6.49835205
64.50000000	-70.00000000	6.15742493
65.00000000	-70.00000000	5.82603455
65.50000000	-70.00000000	5.53620911
66.00000000	-70.00000000	5.32292175
66.50000000	-70.00000000	5.22236633
67.00000000	-70.00000000	5.27023315
67.50000000	-70.00000000	5.49916077
68.00000000	-70.00000000	5.93696594
68.50000000	-70.00000000	6.60386658
69.00000000	-70.00000000	6.50935364
69.50000000	-70.00000000	7.64990234
70.00000000	-70.00000000	9.00741577
70.50000000	-70.00000000	9.54969788
71.00000000	-70.00000000	11.23408508
71.50000000	-70.00000000	12.01260376
72.00000000	-70.00000000	13.83743286
72.50000000	-70.00000000	14.66625977
73.00000000	-70.00000000	15.46627808
73.50000000	-70.00000000	17.21665955
74.00000000	-70.00000000	17.91052246
74.50000000	-70.00000000	18.55290222
75.00000000	-70.00000000	19.15661621
75.50000000	-70.00000000	20.73750305
76.00000000	-70.00000000	21.31159973
76.50000000	-70.00000000	21.89144897
77.00000000	-70.00000000	22.48310852
77.50000000	-70.00000000	23.08609009
78.00000000	-70.00000000	23.69525146
78.50000000	-70.00000000	24.30470276
79.00000000	-70.00000000	24.91014099
79.50000000	-70.00000000	25.50975037
80.00000000	-70.00000000	26.10676575
80.50000000	-70.00000000	26.71011353
81.00000000	-70.00000000	26.33390808
81.50000000	-70.00000000	26.99656677
82.00000000	-70.00000000	27.71893311
82.50000000	-70.00000000	28.52053833
83.00000000	-70.00000000	29.41638184
83.50000000	-70.00000000	30.41300964
84.00000000	-70.00000000	31.50338745
84.50000000	-70.00000000	32.66186523
85.00000000	-70.00000000	33.84432983
85.50000000	-70.00000000	34.98916626
86.00000000	-70.00000000	36.01885986
86.50000000	-70.00000000	36.84594727
87.00000000	-70.00000000	38.38119507
87.50000000	-70.00000000	38.54228210
88.00000000	-70.00000000	38.26335144
88.50000000	-70.00000000	37.50515747
89.00000000	-70.00000000	37.25875854
89.50000000	-70.00000000	35.54531860
90.00000000	-70.00000000	34.41215515
90.50000000	-70.00000000	31.92648315
91.00000000	-70.00000000	30.16914368
91.50000000	-70.00000000	27.22808838
92.00000000	-70.00000000	24.19306946
92.50000000	-70.00000000	22.15364075
93.00000000	-70.00000000	19.19999695
93.50000000	-70.00000000	17.42294312
94.00000000	-70.00000000	14.91154480
94.50000000	-70.00000000	13.74826050
95.00000000	-70.00000000	12.00318909
95.50000000	-70.00000000	11.72598267
96.00000000	-70.00000000	10.93939209
96.50000000	-70.00000000	11.63372803
97.00000000	-70.00000000	12.76440430
97.50000000	-70.00000000	14.25009155
98.00000000	-70.00000000	15.97863770
98.50000000	-70.00000000	17.81694031
99.00000000	-70.00000000	19.62136841
99.50000000	-70.00000000	21.25035095
100.00000000	-70.00000000	22.58006287
100.50000000	-70.00000000	24.51756287
101.00000000	-70.00000000	25.00839233
101.50000000	-70.00000000	25.03886414
102.00000000	-70.00000000	24.63371277
102.50000000	-70.00000000	24.84552002
103.00000000	-70.00000000	23.74412537
103.50000000	-70.00000000	22.40411377
104.00000000	-70.00000000	21.89329529
104.50000000	-70.00000000	20.26295471
105.00000000	-70.00000000	19.54154968
105.50000000	-70.00000000	18.73229980
106.00000000	-70.00000000	17.81805420
106.50000000	-70.00000000	15.76774597
107.00000000	-70.00000000	14.54597473
