281.50000000	-77.50000000	-23.99506378
282.00000000	-77.50000000	-24.35372925
282.50000000	-77.50000000	-24.61981964
283.00000000	-77.50000000	-24.78779602
283.50000000	-77.50000000	-24.85469055
284.00000000	-77.50000000	-24.81990051
284.50000000	-77.50000000	-24.68407440
285.00000000	-77.50000000	-25.45177460
285.50000000	-77.50000000	-25.12861633
286.00000000	-77.50000000	-24.72159576
286.50000000	-77.50000000	-24.23885345
287.00000000	-77.50000000	-24.68942261
287.50000000	-77.50000000	-24.08297729
288.00000000	-77.50000000	-25.42996979
288.50000000	-77.50000000	-24.74198151
289.00000000	-77.50000000	-25.03160858
289.50000000	-77.50000000	-24.31289673
290.00000000	-77.50000000	-24.60130310
290.50000000	-77.50000000	-24.91342163
291.00000000	-77.50000000	-25.26680756
291.50000000	-77.50000000	-24.67924500
292.00000000	-77.50000000	-25.16764832
292.50000000	-77.50000000	-25.74727631
293.00000000	-77.50000000	-25.43051147
293.50000000	-77.50000000	-26.22595978
294.00000000	-77.50000000	-26.13838959
294.50000000	-77.50000000	-27.16782379
295.00000000	-77.50000000	-28.31002808
295.50000000	-77.50000000	-28.55638885
296.00000000	-77.50000000	-28.89487457
296.50000000	-77.50000000	-30.31082916
297.00000000	-77.50000000	-30.78826904
297.50000000	-77.50000000	-31.31046295
298.00000000	-77.50000000	-31.86140442
298.50000000	-77.50000000	-33.42582703
299.00000000	-77.50000000	-33.99003601
299.50000000	-77.50000000	-34.54244232
300.00000000	-77.50000000	-35.07393646
300.50000000	-77.50000000	-36.57839203
301.00000000	-77.50000000	-36.05247498
301.50000000	-77.50000000	-37.49609375
302.00000000	-77.50000000	-37.91262817
302.50000000	-77.50000000	-38.30957031
303.00000000	-77.50000000	-38.69880676
303.50000000	-77.50000000	-39.09690857
304.00000000	-77.50000000	-38.52486420
304.50000000	-77.50000000	-40.00729370
305.00000000	-77.50000000	-39.57173920
305.50000000	-77.50000000	-40.24718475
306.00000000	-77.50000000	-41.06209564
306.50000000	-77.50000000	-42.04283142
307.00000000	-77.50000000	-43.21152496
307.50000000	-77.50000000	-43.58395386
308.00000000	-77.50000000	-45.16799164
308.50000000	-77.50000000	-45.96237946
359.50000000	-77.50000000	-70.91084290
360.00000000	-77.50000000	-74.03466797
0.00000000	-78.00000000	-62.44754028
0.50000000	-78.00000000	-66.05636597
181.00000000	-78.00000000	2.30376053
181.50000000	-78.00000000	3.67364883
182.00000000	-78.00000000	5.11178970
201.00000000	-78.00000000	6.72672272
201.50000000	-78.00000000	5.86179352
202.00000000	-78.00000000	4.97923279
202.50000000	-78.00000000	3.07662201
203.00000000	-78.00000000	2.15404510
203.50000000	-78.00000000	1.21427917
204.00000000	-78.00000000	0.26313782
204.50000000	-78.00000000	-0.69107819
205.00000000	-78.00000000	-1.63777161
205.50000000	-78.00000000	-2.56605530
206.00000000	-78.00000000	-3.46485901
206.50000000	-78.00000000	-4.32297134
207.00000000	-78.00000000	-5.13129044
207.50000000	-78.00000000	-5.88216782
208.00000000	-78.00000000	-6.57118988
208.50000000	-78.00000000	-6.19651413
209.00000000	-78.00000000	-6.75953293
209.50000000	-78.00000000	-7.26454926
210.00000000	-78.00000000	-7.71836853
210.50000000	-78.00000000	-8.13002014
211.00000000	-78.00000000	-8.51026154
211.50000000	-78.00000000	-8.87071991
212.00000000	-78.00000000	-9.22389221
212.50000000	-78.00000000	-9.58135986
213.00000000	-78.00000000	-9.95397186
213.50000000	-78.00000000	-9.35149384
214.00000000	-78.00000000	-9.78581619
214.50000000	-78.00000000	-10.25363159
215.00000000	-78.00000000	-10.76050186
215.50000000	-78.00000000	-11.30617523
216.00000000	-78.00000000	-10.89338303
216.50000000	-78.00000000	-11.51718140
217.00000000	-78.00000000	-12.17385483
217.50000000	-78.00000000	-12.85416794
218.00000000	-78.00000000	-13.54988861
218.50000000	-78.00000000	-13.24874115
219.00000000	-78.00000000	-13.94794083
219.50000000	-78.00000000	-14.63425446
220.00000000	-78.00000000	-15.29760361
220.50000000	-78.00000000	-14.93033981
221.00000000	-78.00000000	-15.52658844
221.50000000	-78.00000000	-16.08689117
222.00000000	-78.00000000	-15.59904480
222.50000000	-78.00000000	-16.06352997
223.00000000	-78.00000000	-16.49228668
223.50000000	-78.00000000	-16.88627625
224.00000000	-78.00000000	-16.25178146
224.50000000	-78.00000000	-16.59506607
225.00000000	-78.00000000	-16.92206573
225.50000000	-78.00000000	-16.23755264
226.00000000	-78.00000000	-16.54463196
226.50000000	-78.00000000	-16.84496689
227.00000000	-78.00000000	-16.13904572
227.50000000	-78.00000000	-16.42608643
228.00000000	-78.00000000	-16.70464706
228.50000000	-78.00000000	-15.97204590
229.00000000	-78.00000000	-16.22600174
229.50000000	-78.00000000	-16.46348190
230.00000000	-78.00000000	-15.67873001
230.50000000	-78.00000000	-15.87743759
231.00000000	-78.00000000	-16.06234741
231.50000000	-78.00000000	-15.21111679
232.00000000	-78.00000000	-15.33249283
232.50000000	-78.00000000	-15.41239166
233.00000000	-78.00000000	-15.45790863
233.50000000	-78.00000000	-14.45450592
234.00000000	-78.00000000	-14.39810181
234.50000000	-78.00000000	-14.27616501
235.00000000	-78.00000000	-14.08437729
235.50000000	-78.00000000	-13.81336975
236.00000000	-78.00000000	-12.45734787
236.50000000	-78.00000000	-12.01748657
237.00000000	-78.00000000	-11.49135971
237.50000000	-78.00000000	-10.88002396
238.00000000	-78.00000000	-10.19497299
238.50000000	-78.00000000	-8.44999313
239.00000000	-78.00000000	-7.67086029
239.50000000	-78.00000000	-6.88599777
240.00000000	-78.00000000	-6.12250519
240.50000000	-78.00000000	-5.40029526
241.00000000	-78.00000000	-4.73070908
241.50000000	-78.00000000	-4.13079453
242.00000000	-78.00000000	-3.62071228
242.50000000	-78.00000000	-3.20623779
243.00000000	-78.00000000	-2.89055252
243.50000000	-78.00000000	-2.67290878
244.00000000	-78.00000000	-2.54840851
244.50000000	-78.00000000	-2.50787735
245.00000000	-78.00000000	-2.53776169
245.50000000	-78.00000000	-2.62100601
246.00000000	-78.00000000	-3.73817444
246.50000000	-78.00000000	-3.87078094
247.00000000	-78.00000000	-3.98958969
247.50000000	-78.00000000	-4.06480408
248.00000000	-78.00000000	-5.07659912
248.50000000	-78.00000000	-4.99212265
249.00000000	-78.00000000	-4.80463028
249.50000000	-78.00000000	-5.51010513
250.00000000	-78.00000000	-5.10189819
250.50000000	-78.00000000	-4.57955170
251.00000000	-78.00000000	-3.95615005
251.50000000	-78.00000000	-4.24349213
252.00000000	-78.00000000	-3.45060730
252.50000000	-78.00000000	-3.59093475
253.00000000	-78.00000000	-2.67284775
253.50000000	-78.00000000	-2.70795822
254.00000000	-78.00000000	-1.70740891
254.50000000	-78.00000000	-0.67285538
255.00000000	-78.00000000	-0.61119461
255.50000000	-78.00000000	0.48113632
256.00000000	-78.00000000	0.59923172
256.50000000	-78.00000000	0.73421097
257.00000000	-78.00000000	1.88179398
257.50000000	-78.00000000	2.03525162
258.00000000	-78.00000000	3.18466568
258.50000000	-78.00000000	3.30917358
259.00000000	-78.00000000	3.39847565
259.50000000	-78.00000000	4.43779755
260.00000000	-78.00000000	4.41136932
260.50000000	-78.00000000	4.30464172
261.00000000	-78.00000000	4.10466003
261.50000000	-78.00000000	3.80074310
262.00000000	-78.00000000	3.38502502
262.50000000	-78.00000000	2.85465240
263.00000000	-78.00000000	2.21070099
263.50000000	-78.00000000	1.45633698
264.00000000	-78.00000000	0.59791565
264.50000000	-78.00000000	-0.35455322
265.00000000	-78.00000000	-1.38879395
265.50000000	-78.00000000	-1.49105072
266.00000000	-78.00000000	-2.64662170
266.50000000	-78.00000000	-3.84243011
267.00000000	-78.00000000	-5.06281281
267.50000000	-78.00000000	-6.29346466
268.00000000	-78.00000000	-7.52310944
268.50000000	-78.00000000	-7.74102783
269.00000000	-78.00000000	-8.93775177
269.50000000	-78.00000000	-10.10580444
270.00000000	-78.00000000	-10.23902893
270.50000000	-78.00000000	-11.33219910
271.00000000	-78.00000000	-12.38173676
271.50000000	-78.00000000	-13.38483429
272.00000000	-78.00000000	-13.34206390
272.50000000	-78.00000000	-14.25202942
273.00000000	-78.00000000	-15.11634064
273.50000000	-78.00000000	-14.93788147
274.00000000	-78.00000000	-15.72046661
274.50000000	-78.00000000	-16.46900940
275.00000000	-78.00000000	-16.18862915
275.50000000	-78.00000000	-16.88444519
276.00000000	-78.00000000	-17.56296539
276.50000000	-78.00000000	-18.22930908
277.00000000	-78.00000000	-18.88697052
277.50000000	-78.00000000	-18.53877258
278.00000000	-78.00000000	-19.18598175
278.50000000	-78.00000000	-19.82775116
279.00000000	-78.00000000	-19.46208954
279.50000000	-78.00000000	-20.08454132
280.00000000	-78.00000000	-20.68866730
280.50000000	-78.00000000	-21.26724243
281.00000000	-78.00000000	-21.81189728
281.50000000	-78.00000000	-22.31298828
282.00000000	-78.00000000	-22.76123047
282.50000000	-78.00000000	-23.14809418
283.00000000	-78.00000000	-23.46590424
283.50000000	-78.00000000	-23.70819855
284.00000000	-78.00000000	-24.87084961
284.50000000	-78.00000000	-24.95046234
285.00000000	-78.00000000	-24.94715118
285.50000000	-78.00000000	-25.86260986
286.00000000	-78.00000000	-25.70065308
286.50000000	-78.00000000	-26.46715546
287.00000000	-78.00000000	-26.16977692
287.50000000	-78.00000000	-26.81806183
288.00000000	-78.00000000	-27.42322540
288.50000000	-78.00000000	-26.99820709
289.00000000	-78.00000000	-27.55735779
289.50000000	-78.00000000	-27.11624908
290.00000000	-78.00000000	-27.69122314
290.50000000	-78.00000000	-27.29873657
291.00000000	-78.00000000	-27.95464325
291.50000000	-78.00000000	-27.67362976
292.00000000	-78.00000000	-27.46866608
292.50000000	-78.00000000	-28.35034180
293.00000000	-78.00000000	-28.32630920
293.50000000	-78.00000000	-29.40119171
294.00000000	-78.00000000	-29.57655334
294.50000000	-78.00000000	-30.85053253
295.00000000	-78.00000000	-31.21843719
295.50000000	-78.00000000	-31.67307281
296.00000000	-78.00000000	-32.20505524
296.50000000	-78.00000000	-32.80386353
297.00000000	-78.00000000	-34.45824432
297.50000000	-78.00000000	-35.15666199
298.00000000	-78.00000000	-35.88785553
298.50000000	-78.00000000	-36.64098358
299.00000000	-78.00000000	-37.40610504
299.50000000	-78.00000000	-39.17477417
300.00000000	-78.00000000	-39.93988800
300.50000000	-78.00000000	-40.69603729
301.00000000	-78.00000000	-41.43952179
301.50000000	-78.00000000	-43.16886902
302.00000000	-78.00000000	-43.88465881
302.50000000	-78.00000000	-44.59033203
303.00000000	-78.00000000	-45.29189301
303.50000000	-78.00000000	-44.99808502
304.00000000	-78.00000000	-46.72023773
304.50000000	-78.00000000	-46.47183990
305.00000000	-78.00000000	-47.26765442
305.50000000	-78.00000000	-48.12303925
306.00000000	-78.00000000	-49.05281830
306.50000000	-78.00000000	-49.07003784
307.00000000	-78.00000000	-50.18457031
359.50000000	-78.00000000	-58.79586792
360.00000000	-78.00000000	-62.44754028
0.00000000	-78.50000000	-52.18601990
0.50000000	-78.50000000	-54.89566040
181.00000000	-78.50000000	5.23047638
181.50000000	-78.50000000	5.60017395
182.00000000	-78.50000000	7.01336670
182.50000000	-78.50000000	8.46563721
183.00000000	-78.50000000	9.95005035
183.50000000	-78.50000000	11.45712280
184.00000000	-78.50000000	12.97468567
184.50000000	-78.50000000	13.48830414
185.00000000	-78.50000000	14.98175049
185.50000000	-78.50000000	16.43770599
186.00000000	-78.50000000	17.83856201
186.50000000	-78.50000000	19.16699982
187.00000000	-78.50000000	20.40681458
187.50000000	-78.50000000	21.54357147
188.00000000	-78.50000000	22.56513214
188.50000000	-78.50000000	22.46200562
189.00000000	-78.50000000	23.22738647
189.50000000	-78.50000000	23.85707855
190.00000000	-78.50000000	24.34942627
190.50000000	-78.50000000	24.70472717
197.50000000	-78.50000000	16.57029724
198.00000000	-78.50000000	15.67331696
198.50000000	-78.50000000	13.75327301
199.00000000	-78.50000000	12.81266022
199.50000000	-78.50000000	11.85272217
200.00000000	-78.50000000	10.87394714
200.50000000	-78.50000000	9.87615204
201.00000000	-78.50000000	7.85923004
201.50000000	-78.50000000	6.82340240
202.00000000	-78.50000000	5.76980591
202.50000000	-78.50000000	4.70117188
203.00000000	-78.50000000	3.62191772
203.50000000	-78.50000000	2.53838348
204.00000000	-78.50000000	1.45776367
204.50000000	-78.50000000	0.38930511
205.00000000	-78.50000000	-1.65672302
205.50000000	-78.50000000	-2.67048645
206.00000000	-78.50000000	-3.64139938
206.50000000	-78.50000000	-4.56080627
207.00000000	-78.50000000	-5.42057037
207.50000000	-78.50000000	-6.21550369
208.00000000	-78.50000000	-6.94359207
208.50000000	-78.50000000	-7.60342407
209.00000000	-78.50000000	-8.19700241
209.50000000	-78.50000000	-8.72826385
210.00000000	-78.50000000	-9.20292664
210.50000000	-78.50000000	-9.62842178
211.00000000	-78.50000000	-10.01313782
211.50000000	-78.50000000	-10.36588287
212.00000000	-78.50000000	-10.69540787
212.50000000	-78.50000000	-10.00995255
213.00000000	-78.50000000	-10.31756210
213.50000000	-78.50000000	-10.62455368
214.00000000	-78.50000000	-10.93679047
214.50000000	-78.50000000	-11.25947952
215.00000000	-78.50000000	-11.60037994
215.50000000	-78.50000000	-11.95247269
216.00000000	-78.50000000	-12.31987762
216.50000000	-78.50000000	-11.70194626
217.00000000	-78.50000000	-12.10249329
217.50000000	-78.50000000	-12.51851654
218.00000000	-78.50000000	-12.94831085
218.50000000	-78.50000000	-13.38926315
219.00000000	-78.50000000	-13.84148407
219.50000000	-78.50000000	-13.29961777
220.00000000	-78.50000000	-13.76001740
220.50000000	-78.50000000	-14.21765137
221.00000000	-78.50000000	-14.67578888
221.50000000	-78.50000000	-14.12878036
222.00000000	-78.50000000	-14.57502365
222.50000000	-78.50000000	-15.01261520
223.00000000	-78.50000000	-14.43947983
223.50000000	-78.50000000	-14.85543060
224.00000000	-78.50000000	-15.26019287
224.50000000	-78.50000000	-15.65335846
225.00000000	-78.50000000	-15.03470993
225.50000000	-78.50000000	-15.40377808
226.00000000	-78.50000000	-15.75989532
226.50000000	-78.50000000	-15.10226822
227.00000000	-78.50000000	-15.42967224
227.50000000	-78.50000000	-15.74040985
228.00000000	-78.50000000	-16.03329849
228.50000000	-78.50000000	-15.30602646
229.00000000	-78.50000000	-15.55942535
229.50000000	-78.50000000	-15.78979874
230.00000000	-78.50000000	-15.00644684
230.50000000	-78.50000000	-15.19736099
231.00000000	-78.50000000	-15.36090851
231.50000000	-78.50000000	-15.49034119
232.00000000	-78.50000000	-14.59092712
232.50000000	-78.50000000	-14.65582657
233.00000000	-78.50000000	-14.68461609
233.50000000	-78.50000000	-14.66959763
234.00000000	-78.50000000	-13.61278152
234.50000000	-78.50000000	-13.49721909
235.00000000	-78.50000000	-13.32929611
235.50000000	-78.50000000	-13.08973312
236.00000000	-78.50000000	-12.77991867
236.50000000	-78.50000000	-11.39718246
237.00000000	-78.50000000	-10.94400406
237.50000000	-78.50000000	-10.42721939
238.00000000	-78.50000000	-9.84769821
238.50000000	-78.50000000	-9.21734619
239.00000000	-78.50000000	-8.55236053
239.50000000	-78.50000000	-7.86484528
240.00000000	-78.50000000	-7.17855072
240.50000000	-78.50000000	-6.51509476
241.00000000	-78.50000000	-5.89159012
241.50000000	-78.50000000	-5.31346512
242.00000000	-78.50000000	-4.79517746
242.50000000	-78.50000000	-4.33674240
243.00000000	-78.50000000	-3.93992233
243.50000000	-78.50000000	-3.60154724
244.00000000	-78.50000000	-3.31513977
244.50000000	-78.50000000	-3.07162857
245.00000000	-78.50000000	-2.86312866
245.50000000	-78.50000000	-2.67274094
246.00000000	-78.50000000	-2.48733139
246.50000000	-78.50000000	-3.29014969
247.00000000	-78.50000000	-3.07651520
247.50000000	-78.50000000	-2.83107758
248.00000000	-78.50000000	-2.54481125
248.50000000	-78.50000000	-3.20794296
249.00000000	-78.50000000	-2.81471252
249.50000000	-78.50000000	-2.35430908
250.00000000	-78.50000000	-1.83694077
250.50000000	-78.50000000	-2.25526810
251.00000000	-78.50000000	-1.62156296
251.50000000	-78.50000000	-0.93531036
252.00000000	-78.50000000	-1.20697403
252.50000000	-78.50000000	-0.43790436
253.00000000	-78.50000000	-0.63685226
253.50000000	-78.50000000	0.19258118
254.00000000	-78.50000000	0.04820251
254.50000000	-78.50000000	0.93121338
255.00000000	-78.50000000	0.84283829
255.50000000	-78.50000000	1.77081299
256.00000000	-78.50000000	1.71864319
256.50000000	-78.50000000	2.68611145
257.00000000	-78.50000000	2.67043304
257.50000000	-78.50000000	2.66631317
258.00000000	-78.50000000	3.65236664
258.50000000	-78.50000000	3.62439728
259.00000000	-78.50000000	3.57077789
259.50000000	-78.50000000	3.47816467
260.00000000	-78.50000000	3.33303833
260.50000000	-78.50000000	4.12355804
261.00000000	-78.50000000	3.83792877
261.50000000	-78.50000000	3.46702576
262.00000000	-78.50000000	3.00447845
262.50000000	-78.50000000	2.44688416
263.00000000	-78.50000000	1.79432678
263.50000000	-78.50000000	1.04946899
264.00000000	-78.50000000	0.21828461
264.50000000	-78.50000000	-0.68885040
265.00000000	-78.50000000	-1.66094971
265.50000000	-78.50000000	-2.68453979
266.00000000	-78.50000000	-3.74676514
266.50000000	-78.50000000	-4.83084869
267.00000000	-78.50000000	-4.92189026
267.50000000	-78.50000000	-6.00640869
268.00000000	-78.50000000	-7.07048798
268.50000000	-78.50000000	-8.10195923
269.00000000	-78.50000000	-8.09036255
269.50000000	-78.50000000	-9.02651978
270.00000000	-78.50000000	-9.90448761
270.50000000	-78.50000000	-10.71903992
271.00000000	-78.50000000	-11.46761322
271.50000000	-78.50000000	-11.14972687
272.00000000	-78.50000000	-11.76718903
272.50000000	-78.50000000	-12.32307434
273.00000000	-78.50000000	-12.82249451
273.50000000	-78.50000000	-13.27106476
274.00000000	-78.50000000	-12.67701721
274.50000000	-78.50000000	-13.04908752
275.00000000	-78.50000000	-13.39566040
275.50000000	-78.50000000	-13.72612762
276.00000000	-78.50000000	-14.04946136
276.50000000	-78.50000000	-13.37416840
277.00000000	-78.50000000	-13.70760345
277.50000000	-78.50000000	-14.05606842
278.00000000	-78.50000000	-14.42383575
278.50000000	-78.50000000	-14.81449890
279.00000000	-78.50000000	-15.22953033
279.50000000	-78.50000000	-15.66776276
280.00000000	-78.50000000	-16.12673187
280.50000000	-78.50000000	-16.60231781
281.00000000	-78.50000000	-17.08896637
281.50000000	-78.50000000	-17.57997894
282.00000000	-78.50000000	-18.06828308
282.50000000	-78.50000000	-19.54627228
283.00000000	-78.50000000	-20.00682068
283.50000000	-78.50000000	-20.44247437
284.00000000	-78.50000000	-21.84792328
284.50000000	-78.50000000	-22.21852112
285.00000000	-78.50000000	-23.55120850
285.50000000	-78.50000000	-23.84431458
286.00000000	-78.50000000	-24.09790039
286.50000000	-78.50000000	-25.31373596
287.00000000	-78.50000000	-25.49519348
287.50000000	-78.50000000	-26.64720917
288.00000000	-78.50000000	-26.77576447
288.50000000	-78.50000000	-26.88806915
289.00000000	-78.50000000	-27.99234009
289.50000000	-78.50000000	-28.09736633
290.00000000	-78.50000000	-28.21219635
290.50000000	-78.50000000	-29.34570312
291.00000000	-78.50000000	-29.50640106
291.50000000	-78.50000000	-29.70193481
292.00000000	-78.50000000	-29.93890381
292.50000000	-78.50000000	-31.22264862
293.00000000	-78.50000000	-31.55726624
293.50000000	-78.50000000	-31.94565582
294.00000000	-78.50000000	-32.38904572
294.50000000	-78.50000000	-33.88742828
295.00000000	-78.50000000	-34.43949890
295.50000000	-78.50000000	-34.04278564
296.00000000	-78.50000000	-35.69386292
296.50000000	-78.50000000	-36.38835144
297.00000000	-78.50000000	-37.12112427
297.50000000	-78.50000000	-37.88628387
298.00000000	-78.50000000	-39.67753601
298.50000000	-78.50000000	-40.48838806
299.00000000	-78.50000000	-41.31254578
299.50000000	-78.50000000	-42.14416504
300.00000000	-78.50000000	-43.97807312
300.50000000	-78.50000000	-44.80973053
301.00000000	-78.50000000	-45.63574982
301.50000000	-78.50000000	-46.45394135
302.00000000	-78.50000000	-47.26362610
302.50000000	-78.50000000	-49.06575775
303.00000000	-78.50000000	-48.86283875
303.50000000	-78.50000000	-49.65888214
304.00000000	-78.50000000	-50.45900726
304.50000000	-78.50000000	-51.26934814
305.00000000	-78.50000000	-52.09606934
305.50000000	-78.50000000	-52.94507599
306.00000000	-78.50000000	-52.82109833
359.50000000	-78.50000000	-48.41040039
360.00000000	-78.50000000	-52.18601990
0.00000000	-79.00000000	-43.43634033
0.50000000	-79.00000000	-45.76280212
181.00000000	-79.00000000	6.65322495
181.50000000	-79.00000000	8.00150681
182.00000000	-79.00000000	9.37461472
182.50000000	-79.00000000	10.76700211
183.00000000	-79.00000000	12.17186356
183.50000000	-79.00000000	12.58158493
184.00000000	-79.00000000	13.98706436
184.50000000	-79.00000000	15.37831497
185.00000000	-79.00000000	16.74465561
185.50000000	-79.00000000	18.07474136
186.00000000	-79.00000000	19.35721207
186.50000000	-79.00000000	20.58108139
187.00000000	-79.00000000	20.73615646
187.50000000	-79.00000000	21.81344986
188.00000000	-79.00000000	22.80533981
188.50000000	-79.00000000	23.70576859
189.00000000	-79.00000000	24.51039505
189.50000000	-79.00000000	25.21632767
190.00000000	-79.00000000	25.82196426
190.50000000	-79.00000000	26.32683945
191.00000000	-79.00000000	26.73143387
191.50000000	-79.00000000	26.03673935
192.00000000	-79.00000000	26.24409103
192.50000000	-79.00000000	26.35519028
193.00000000	-79.00000000	26.37168503
193.50000000	-79.00000000	26.29554367
194.00000000	-79.00000000	26.12862015
194.50000000	-79.00000000	25.87306595
195.00000000	-79.00000000	24.53108597
195.50000000	-79.00000000	24.10560989
196.00000000	-79.00000000	23.59975052
196.50000000	-79.00000000	23.01721573
197.00000000	-79.00000000	22.36214828
197.50000000	-79.00000000	20.63912964
198.00000000	-79.00000000	19.85272980
198.50000000	-79.00000000	19.00782013
199.00000000	-79.00000000	18.10932922
199.50000000	-79.00000000	17.16203308
200.00000000	-79.00000000	16.17069244
200.50000000	-79.00000000	14.13976288
201.00000000	-79.00000000	13.07388306
201.50000000	-79.00000000	11.97779846
202.00000000	-79.00000000	10.85690308
202.50000000	-79.00000000	9.71656799
203.00000000	-79.00000000	8.56254578
203.50000000	-79.00000000	6.40133667
204.00000000	-79.00000000	5.24066925
204.50000000	-79.00000000	4.08800507
205.00000000	-79.00000000	2.95011139
205.50000000	-79.00000000	1.83497620
206.00000000	-79.00000000	0.75016785
206.50000000	-79.00000000	-0.29731750
207.00000000	-79.00000000	-1.30149078
207.50000000	-79.00000000	-2.25812531
208.00000000	-79.00000000	-3.16408157
208.50000000	-79.00000000	-5.01684189
209.00000000	-79.00000000	-5.81560516
209.50000000	-79.00000000	-6.56082535
210.00000000	-79.00000000	-6.25381088
210.50000000	-79.00000000	-7.89668655
211.00000000	-79.00000000	-8.49210739
211.50000000	-79.00000000	-8.04321289
212.00000000	-79.00000000	-9.55280304
212.50000000	-79.00000000	-9.02378845
213.00000000	-79.00000000	-10.45906830
213.50000000	-79.00000000	-9.86147690
214.00000000	-79.00000000	-10.23411560
214.50000000	-79.00000000	-10.58008194
215.00000000	-79.00000000	-10.90292740
215.50000000	-79.00000000	-11.20687866
216.00000000	-79.00000000	-11.49574280
216.50000000	-79.00000000	-11.77415085
217.00000000	-79.00000000	-12.04747009
217.50000000	-79.00000000	-11.32474899
218.00000000	-79.00000000	-11.60012054
218.50000000	-79.00000000	-11.88160324
219.00000000	-79.00000000	-12.17189789
219.50000000	-79.00000000	-12.47850800
220.00000000	-79.00000000	-12.80099487
220.50000000	-79.00000000	-12.14053726
221.00000000	-79.00000000	-12.49633408
221.50000000	-79.00000000	-12.86675262
222.00000000	-79.00000000	-13.25043488
222.50000000	-79.00000000	-12.64540863
223.00000000	-79.00000000	-13.04793549
223.50000000	-79.00000000	-13.45463562
224.00000000	-79.00000000	-13.86165237
224.50000000	-79.00000000	-13.26509094
225.00000000	-79.00000000	-13.66080856
225.50000000	-79.00000000	-14.04574966
226.00000000	-79.00000000	-14.41663361
226.50000000	-79.00000000	-13.77022934
227.00000000	-79.00000000	-14.10114670
227.50000000	-79.00000000	-14.41777039
228.00000000	-79.00000000	-14.71267319
228.50000000	-79.00000000	-13.98463440
229.00000000	-79.00000000	-14.22839737
229.50000000	-79.00000000	-14.44714737
230.00000000	-79.00000000	-14.64093781
230.50000000	-79.00000000	-13.80991364
231.00000000	-79.00000000	-13.95036316
231.50000000	-79.00000000	-14.06521606
232.00000000	-79.00000000	-14.15479660
232.50000000	-79.00000000	-13.21395874
233.00000000	-79.00000000	-13.23970032
233.50000000	-79.00000000	-13.23414612
234.00000000	-79.00000000	-13.19289398
234.50000000	-79.00000000	-13.11783218
235.00000000	-79.00000000	-12.00397873
235.50000000	-79.00000000	-11.84348297
236.00000000	-79.00000000	-11.63698578
236.50000000	-79.00000000	-11.38048935
237.00000000	-79.00000000	-11.07411957
237.50000000	-79.00000000	-10.72707748
238.00000000	-79.00000000	-10.32518005
238.50000000	-79.00000000	-9.88092804
239.00000000	-79.00000000	-8.40242767
239.50000000	-79.00000000	-7.89648438
240.00000000	-79.00000000	-7.37244415
240.50000000	-79.00000000	-6.83972168
241.00000000	-79.00000000	-6.30716705
241.50000000	-79.00000000	-5.78579330
242.00000000	-79.00000000	-5.28695297
242.50000000	-79.00000000	-4.80586624
243.00000000	-79.00000000	-5.34766769
243.50000000	-79.00000000	-4.90672302
244.00000000	-79.00000000	-4.47869873
244.50000000	-79.00000000	-4.06100845
245.00000000	-79.00000000	-3.64173126
245.50000000	-79.00000000	-3.21325302
246.00000000	-79.00000000	-2.76873779
246.50000000	-79.00000000	-2.30293274
247.00000000	-79.00000000	-2.81010437
247.50000000	-79.00000000	-2.29000854
248.00000000	-79.00000000	-1.73782349
248.50000000	-79.00000000	-1.15467834
249.00000000	-79.00000000	-1.53802109
249.50000000	-79.00000000	-0.88723373
250.00000000	-79.00000000	-0.21446228
250.50000000	-79.00000000	-0.51786041
251.00000000	-79.00000000	0.19935989
251.50000000	-79.00000000	0.92910385
252.00000000	-79.00000000	0.67651367
252.50000000	-79.00000000	1.43716812
253.00000000	-79.00000000	2.20562363
253.50000000	-79.00000000	1.97945786
254.00000000	-79.00000000	2.75883865
254.50000000	-79.00000000	2.54433060
255.00000000	-79.00000000	3.33946609
255.50000000	-79.00000000	3.13874054
256.00000000	-79.00000000	2.94587708
256.50000000	-79.00000000	3.75930023
257.00000000	-79.00000000	3.56639862
257.50000000	-79.00000000	3.36876678
258.00000000	-79.00000000	3.16048431
258.50000000	-79.00000000	2.93405914
259.00000000	-79.00000000	3.68080902
259.50000000	-79.00000000	3.39183044
260.00000000	-79.00000000	2.05831146
260.50000000	-79.00000000	2.67227936
261.00000000	-79.00000000	2.22714233
261.50000000	-79.00000000	1.71823120
262.00000000	-79.00000000	1.14284515
262.50000000	-79.00000000	0.50043488
263.00000000	-79.00000000	-0.20679474
263.50000000	-79.00000000	-0.97428894
264.00000000	-79.00000000	-1.79457092
264.50000000	-79.00000000	-2.65766907
265.00000000	-79.00000000	-2.55481720
265.50000000	-79.00000000	-3.47279358
266.00000000	-79.00000000	-4.39858246
266.50000000	-79.00000000	-5.31864929
267.00000000	-79.00000000	-6.21936035
267.50000000	-79.00000000	-6.08774567
268.00000000	-79.00000000	-6.91197968
268.50000000	-79.00000000	-7.68141937
269.00000000	-79.00000000	-8.38711548
269.50000000	-79.00000000	-9.02214050
270.00000000	-79.00000000	-9.58128357
270.50000000	-79.00000000	-9.06161499
271.00000000	-79.00000000	-10.46189880
271.50000000	-79.00000000	-9.78467560
272.00000000	-79.00000000	-10.03307343
272.50000000	-79.00000000	-10.21266937
273.00000000	-79.00000000	-10.33053589
273.50000000	-79.00000000	-10.39513397
274.00000000	-79.00000000	-10.41619873
274.50000000	-79.00000000	-9.40431213
275.00000000	-79.00000000	-9.37055206
275.50000000	-79.00000000	-9.32622528
276.00000000	-79.00000000	-9.28297424
276.50000000	-79.00000000	-9.25185394
277.00000000	-79.00000000	-9.24335480
277.50000000	-79.00000000	-9.26737213
278.00000000	-79.00000000	-9.33251190
278.50000000	-79.00000000	-9.44616699
279.00000000	-79.00000000	-9.61415100
279.50000000	-79.00000000	-9.84075928
280.00000000	-79.00000000	-10.12845612
280.50000000	-79.00000000	-11.47846222
281.00000000	-79.00000000	-11.88896179
281.50000000	-79.00000000	-12.35801697
282.00000000	-79.00000000	-12.88153076
282.50000000	-79.00000000	-14.45441437
283.00000000	-79.00000000	-15.07073212
283.50000000	-79.00000000	-15.72393799
284.00000000	-79.00000000	-16.40698242
284.50000000	-79.00000000	-18.11257172
285.00000000	-79.00000000	-18.83348846
285.50000000	-79.00000000	-19.56284332
286.00000000	-79.00000000	-20.29447174
286.50000000	-79.00000000	-22.02317047
287.00000000	-79.00000000	-22.74457550
287.50000000	-79.00000000	-24.45504761
288.00000000	-79.00000000	-25.15185547
288.50000000	-79.00000000	-25.83325958
289.00000000	-79.00000000	-26.49860382
289.50000000	-79.00000000	-27.14816284
290.00000000	-79.00000000	-28.78303528
290.50000000	-79.00000000	-29.40539551
291.00000000	-79.00000000	-30.01777649
291.50000000	-79.00000000	-30.62337494
292.00000000	-79.00000000	-31.22563171
292.50000000	-79.00000000	-32.82827759
293.00000000	-79.00000000	-32.43515015
293.50000000	-79.00000000	-34.05023193
294.00000000	-79.00000000	-34.67714691
294.50000000	-79.00000000	-35.31903076
295.00000000	-79.00000000	-35.97845459
295.50000000	-79.00000000	-36.65710449
296.00000000	-79.00000000	-37.35558319
296.50000000	-79.00000000	-38.07353210
297.00000000	-79.00000000	-38.80947876
297.50000000	-79.00000000	-40.56104279
298.00000000	-79.00000000	-41.32498932
298.50000000	-79.00000000	-42.09760284
299.00000000	-79.00000000	-43.87479401
299.50000000	-79.00000000	-44.65248871
300.00000000	-79.00000000	-45.42667389
300.50000000	-79.00000000	-46.19392395
301.00000000	-79.00000000	-46.95149231
301.50000000	-79.00000000	-47.69765472
302.00000000	-79.00000000	-48.43152618
302.50000000	-79.00000000	-49.15321350
303.00000000	-79.00000000	-49.86383820
303.50000000	-79.00000000	-50.56500244
304.00000000	-79.00000000	-51.25868225
304.50000000	-79.00000000	-51.94681549
305.00000000	-79.00000000	-52.63096619
359.50000000	-79.00000000	-40.02490234
360.00000000	-79.00000000	-43.43634033
0.00000000	-79.50000000	-37.17510986
0.50000000	-79.50000000	-38.74195862
180.50000000	-79.50000000	7.52465820
181.00000000	-79.50000000	7.77985001
181.50000000	-79.50000000	9.05597305
182.00000000	-79.50000000	10.34743881
182.50000000	-79.50000000	11.64863205
183.00000000	-79.50000000	12.95385361
183.50000000	-79.50000000	14.25741196
184.00000000	-79.50000000	14.55349731
184.50000000	-79.50000000	15.83622742
185.00000000	-79.50000000	17.09985352
185.50000000	-79.50000000	18.33873749
186.00000000	-79.50000000	19.54756927
186.50000000	-79.50000000	20.72114563
187.00000000	-79.50000000	21.85468292
187.50000000	-79.50000000	22.94387054
188.00000000	-79.50000000	22.98478699
188.50000000	-79.50000000	23.97409058
189.00000000	-79.50000000	24.90869904
189.50000000	-79.50000000	25.78593445
190.00000000	-79.50000000	26.60316467
190.50000000	-79.50000000	27.35799408
191.00000000	-79.50000000	28.04793549
191.50000000	-79.50000000	28.67019653
192.00000000	-79.50000000	28.22171402
192.50000000	-79.50000000	28.69899368
193.00000000	-79.50000000	29.09828568
193.50000000	-79.50000000	29.41563034
194.00000000	-79.50000000	29.64725113
194.50000000	-79.50000000	29.78967667
195.00000000	-79.50000000	29.84002304
195.50000000	-79.50000000	28.79634857
196.00000000	-79.50000000	28.65761566
196.50000000	-79.50000000	28.42401886
197.00000000	-79.50000000	28.09677124
197.50000000	-79.50000000	27.67830658
198.00000000	-79.50000000	27.17237091
198.50000000	-79.50000000	25.58371735
199.00000000	-79.50000000	24.91771698
199.50000000	-79.50000000	24.18025208
200.00000000	-79.50000000	23.37732697
200.50000000	-79.50000000	22.51486969
201.00000000	-79.50000000	20.59875488
201.50000000	-79.50000000	19.63455963
202.00000000	-79.50000000	18.62730408
202.50000000	-79.50000000	17.58172607
203.00000000	-79.50000000	16.50225830
203.50000000	-79.50000000	15.39155579
204.00000000	-79.50000000	13.25479889
204.50000000	-79.50000000	12.09619141
205.00000000	-79.50000000	10.91968536
205.50000000	-79.50000000	9.73026276
206.00000000	-79.50000000	8.53294373
206.50000000	-79.50000000	7.33223724
207.00000000	-79.50000000	6.13402557
207.50000000	-79.50000000	3.94358826
208.00000000	-79.50000000	2.76682281
208.50000000	-79.50000000	1.60945129
209.00000000	-79.50000000	0.47707367
209.50000000	-79.50000000	-0.62509155
210.00000000	-79.50000000	-1.69140625
210.50000000	-79.50000000	-2.71686554
211.00000000	-79.50000000	-3.69648361
211.50000000	-79.50000000	-4.62584686
212.00000000	-79.50000000	-5.50073624
212.50000000	-79.50000000	-6.31764603
213.00000000	-79.50000000	-7.07385635
213.50000000	-79.50000000	-7.76776886
214.00000000	-79.50000000	-8.39899826
214.50000000	-79.50000000	-8.96870804
215.00000000	-79.50000000	-9.47950363
215.50000000	-79.50000000	-8.93531799
216.00000000	-79.50000000	-9.34161377
216.50000000	-79.50000000	-9.70501709
217.00000000	-79.50000000	-10.03305435
217.50000000	-79.50000000	-10.33392715
218.00000000	-79.50000000	-10.61617661
218.50000000	-79.50000000	-10.88810730
219.00000000	-79.50000000	-11.15703964
219.50000000	-79.50000000	-10.42988205
220.00000000	-79.50000000	-10.71167755
220.50000000	-79.50000000	-11.00688934
221.00000000	-79.50000000	-11.31851959
221.50000000	-79.50000000	-11.64763641
222.00000000	-79.50000000	-10.99298859
222.50000000	-79.50000000	-11.35336685
223.00000000	-79.50000000	-11.72549057
223.50000000	-79.50000000	-12.10671234
224.00000000	-79.50000000	-12.49260330
224.50000000	-79.50000000	-11.87834549
225.00000000	-79.50000000	-12.25930405
225.50000000	-79.50000000	-12.63082123
226.00000000	-79.50000000	-12.98884583
226.50000000	-79.50000000	-12.32969284
227.00000000	-79.50000000	-12.65025330
227.50000000	-79.50000000	-12.94830704
228.00000000	-79.50000000	-13.22205353
228.50000000	-79.50000000	-13.47050858
229.00000000	-79.50000000	-12.69311142
229.50000000	-79.50000000	-12.88999939
230.00000000	-79.50000000	-13.06159210
230.50000000	-79.50000000	-13.20882797
231.00000000	-79.50000000	-12.33308411
231.50000000	-79.50000000	-12.43585968
232.00000000	-79.50000000	-12.51496506
232.50000000	-79.50000000	-12.56991196
233.00000000	-79.50000000	-12.60161209
233.50000000	-79.50000000	-12.61045074
234.00000000	-79.50000000	-11.59693527
234.50000000	-79.50000000	-11.55915070
235.00000000	-79.50000000	-11.49631882
235.50000000	-79.50000000	-11.40615463
236.00000000	-79.50000000	-11.28608322
236.50000000	-79.50000000	-11.13317490
237.00000000	-79.50000000	-10.94832230
237.50000000	-79.50000000	-9.72480774
238.00000000	-79.50000000	-9.46057510
238.50000000	-79.50000000	-9.16067123
239.00000000	-79.50000000	-8.82015991
239.50000000	-79.50000000	-8.44424057
240.00000000	-79.50000000	-8.03686142
240.50000000	-79.50000000	-7.60455704
241.00000000	-79.50000000	-7.15200806
241.50000000	-79.50000000	-6.68528748
242.00000000	-79.50000000	-6.21014786
242.50000000	-79.50000000	-5.72972107
243.00000000	-79.50000000	-5.24859619
243.50000000	-79.50000000	-5.77244568
244.00000000	-79.50000000	-5.30366516
244.50000000	-79.50000000	-4.83095169
245.00000000	-79.50000000	-4.35678864
245.50000000	-79.50000000	-3.87357712
246.00000000	-79.50000000	-3.37591934
246.50000000	-79.50000000	-2.85956955
247.00000000	-79.50000000	-3.31907272
247.50000000	-79.50000000	-2.75068283
248.00000000	-79.50000000	-2.15422440
248.50000000	-79.50000000	-1.52507019
249.00000000	-79.50000000	-1.86366272
249.50000000	-79.50000000	-1.17153549
250.00000000	-79.50000000	-0.45129776
250.50000000	-79.50000000	-0.70661926
251.00000000	-79.50000000	0.05707932
251.50000000	-79.50000000	0.83454514
252.00000000	-79.50000000	0.62004089
252.50000000	-79.50000000	1.41393280
253.00000000	-79.50000000	1.21277618
253.50000000	-79.50000000	2.00955200
254.00000000	-79.50000000	1.80411530
254.50000000	-79.50000000	2.59093475
255.00000000	-79.50000000	2.36286163
255.50000000	-79.50000000	2.12043762
256.00000000	-79.50000000	2.86174774
256.50000000	-79.50000000	2.58299255
257.00000000	-79.50000000	2.28492737
257.50000000	-79.50000000	1.96287537
258.00000000	-79.50000000	1.61466980
258.50000000	-79.50000000	1.23575592
259.00000000	-79.50000000	1.82298279
259.50000000	-79.50000000	1.37343597
260.00000000	-79.50000000	0.88471222
260.50000000	-79.50000000	0.35516357
261.00000000	-79.50000000	-0.21572876
261.50000000	-79.50000000	-0.82733917
262.00000000	-79.50000000	-1.47754669
262.50000000	-79.50000000	-2.16256714
263.00000000	-79.50000000	-1.87882233
263.50000000	-79.50000000	-2.61905670
264.00000000	-79.50000000	-3.37622833
264.50000000	-79.50000000	-4.14220428
265.00000000	-79.50000000	-4.90694427
265.50000000	-79.50000000	-4.66246796
266.00000000	-79.50000000	-5.39868164
266.50000000	-79.50000000	-6.10563660
267.00000000	-79.50000000	-6.77369690
267.50000000	-79.50000000	-7.39365387
268.00000000	-79.50000000	-6.95688629
268.50000000	-79.50000000	-7.45648956
269.00000000	-79.50000000	-7.88648224
269.50000000	-79.50000000	-8.24225616
270.00000000	-79.50000000	-8.52102661
270.50000000	-79.50000000	-8.72159576
271.00000000	-79.50000000	-8.84494781
271.50000000	-79.50000000	-8.89388275
272.00000000	-79.50000000	-7.87290955
272.50000000	-79.50000000	-8.78845978
273.00000000	-79.50000000	-7.64827728
273.50000000	-79.50000000	-7.46152496
274.00000000	-79.50000000	-7.23827362
274.50000000	-79.50000000	-6.98944855
275.00000000	-79.50000000	-6.72649384
275.50000000	-79.50000000	-6.46154785
276.00000000	-79.50000000	-6.20685577
276.50000000	-79.50000000	-5.97440338
277.00000000	-79.50000000	-5.77612305
277.50000000	-79.50000000	-5.62322998
278.00000000	-79.50000000	-5.52639008
278.50000000	-79.50000000	-5.49530029
279.00000000	-79.50000000	-6.53834534
279.50000000	-79.50000000	-6.66272736
280.00000000	-79.50000000	-6.87390137
280.50000000	-79.50000000	-7.17575073
281.00000000	-79.50000000	-8.57020569
281.50000000	-79.50000000	-9.05718994
282.00000000	-79.50000000	-9.63492584
282.50000000	-79.50000000	-10.29942322
283.00000000	-79.50000000	-12.04479980
283.50000000	-79.50000000	-12.86331940
284.00000000	-79.50000000	-13.74587250
284.50000000	-79.50000000	-14.68233490
285.00000000	-79.50000000	-15.66184235
285.50000000	-79.50000000	-17.67306519
286.00000000	-79.50000000	-18.70446014
286.50000000	-79.50000000	-19.74462891
287.00000000	-79.50000000	-20.78269196
287.50000000	-79.50000000	-21.80873108
288.00000000	-79.50000000	-23.81406403
288.50000000	-79.50000000	-24.79145050
289.00000000	-79.50000000	-25.73538971
289.50000000	-79.50000000	-26.64210510
290.00000000	-79.50000000	-27.50968170
290.50000000	-79.50000000	-28.33766174
291.00000000	-79.50000000	-29.12744141
291.50000000	-79.50000000	-29.88179779
292.00000000	-79.50000000	-30.60479736
292.50000000	-79.50000000	-31.30139923
293.00000000	-79.50000000	-32.97728729
293.50000000	-79.50000000	-32.63836670
294.00000000	-79.50000000	-33.29036713
294.50000000	-79.50000000	-34.93881226
295.00000000	-79.50000000	-35.58805084
295.50000000	-79.50000000	-35.24156189
296.00000000	-79.50000000	-35.90169525
296.50000000	-79.50000000	-37.56938171
297.00000000	-79.50000000	-38.24445343
297.50000000	-79.50000000	-38.92549133
298.00000000	-79.50000000	-39.61016083
298.50000000	-79.50000000	-41.29529572
299.00000000	-79.50000000	-41.97740936
299.50000000	-79.50000000	-42.65275574
300.00000000	-79.50000000	-43.31790924
300.50000000	-79.50000000	-44.96972656
301.00000000	-79.50000000	-45.60575104
301.50000000	-79.50000000	-46.22409821
302.00000000	-79.50000000	-46.82366943
302.50000000	-79.50000000	-47.40399933
303.00000000	-79.50000000	-47.96511841
303.50000000	-79.50000000	-48.50735474
304.00000000	-79.50000000	-49.03113556
359.50000000	-79.50000000	-34.51388550
360.00000000	-79.50000000	-37.17510986
0.00000000	-80.00000000	-31.93301392
0.50000000	-80.00000000	-32.64244080
180.50000000	-80.00000000	7.33727264
181.00000000	-80.00000000	8.48224640
181.50000000	-80.00000000	9.64680481
182.00000000	-80.00000000	10.82644653
182.50000000	-80.00000000	11.01689529
183.00000000	-80.00000000	12.21439743
183.50000000	-80.00000000	13.41535568
184.00000000	-80.00000000	14.61671066
184.50000000	-80.00000000	15.81571579
185.00000000	-80.00000000	17.01000595
185.50000000	-80.00000000	18.19755173
186.00000000	-80.00000000	19.37647629
186.50000000	-80.00000000	20.54521561
187.00000000	-80.00000000	20.70205688
187.50000000	-80.00000000	21.84529877
188.00000000	-80.00000000	22.97315216
188.50000000	-80.00000000	24.08350372
189.00000000	-80.00000000	25.17381287
189.50000000	-80.00000000	26.24109650
190.00000000	-80.00000000	27.28166962
190.50000000	-80.00000000	28.29143524
191.00000000	-80.00000000	29.26548767
191.50000000	-80.00000000	29.19831085
192.00000000	-80.00000000	30.08376312
192.50000000	-80.00000000	30.91527557
193.00000000	-80.00000000	31.68606567
193.50000000	-80.00000000	32.38934326
194.00000000	-80.00000000	33.01847839
194.50000000	-80.00000000	33.56737518
195.00000000	-80.00000000	33.03057480
195.50000000	-80.00000000	33.40350723
196.00000000	-80.00000000	33.68271255
196.50000000	-80.00000000	33.86614609
197.00000000	-80.00000000	33.95304489
197.50000000	-80.00000000	33.94414139
198.00000000	-80.00000000	32.84143066
198.50000000	-80.00000000	32.64805603
199.00000000	-80.00000000	32.36773682
199.50000000	-80.00000000	32.00455475
200.00000000	-80.00000000	31.56244659
200.50000000	-80.00000000	30.04553223
201.00000000	-80.00000000	29.45727539
201.50000000	-80.00000000	28.80075073
202.00000000	-80.00000000	28.07853699
202.50000000	-80.00000000	27.29172516
203.00000000	-80.00000000	26.44019318
203.50000000	-80.00000000	24.52484131
204.00000000	-80.00000000	23.54615784
204.50000000	-80.00000000	22.50439453
205.00000000	-80.00000000	21.40060425
205.50000000	-80.00000000	20.23622131
206.00000000	-80.00000000	18.01362610
206.50000000	-80.00000000	16.73623657
207.00000000	-80.00000000	15.40872955
207.50000000	-80.00000000	14.03710938
208.00000000	-80.00000000	12.62845612
208.50000000	-80.00000000	11.19115448
209.00000000	-80.00000000	9.73400879
209.50000000	-80.00000000	8.26763153
210.00000000	-80.00000000	6.80300903
210.50000000	-80.00000000	5.35150909
211.00000000	-80.00000000	3.92465973
211.50000000	-80.00000000	2.53385925
212.00000000	-80.00000000	1.19011688
212.50000000	-80.00000000	-0.09643555
213.00000000	-80.00000000	-1.31710052
213.50000000	-80.00000000	-2.46464539
214.00000000	-80.00000000	-3.53377914
214.50000000	-80.00000000	-4.52127075
215.00000000	-80.00000000	-5.42608643
215.50000000	-80.00000000	-6.24913025
216.00000000	-80.00000000	-6.99353790
216.50000000	-80.00000000	-7.66415787
217.00000000	-80.00000000	-8.26758194
217.50000000	-80.00000000	-8.81155777
218.00000000	-80.00000000	-9.30480576
218.50000000	-80.00000000	-8.75627136
219.00000000	-80.00000000	-9.17481995
219.50000000	-80.00000000	-9.56845474
220.00000000	-80.00000000	-9.94497681
220.50000000	-80.00000000	-10.31072235
221.00000000	-80.00000000	-10.67049026
221.50000000	-80.00000000	-10.02799988
222.00000000	-80.00000000	-10.38544083
222.50000000	-80.00000000	-10.74409485
223.00000000	-80.00000000	-11.10331726
223.50000000	-80.00000000	-11.46079636
224.00000000	-80.00000000	-10.81491089
224.50000000	-80.00000000	-11.16320419
225.00000000	-80.00000000	-11.50254440
225.50000000	-80.00000000	-11.82963562
226.00000000	-80.00000000	-12.14149094
226.50000000	-80.00000000	-11.43537521
227.00000000	-80.00000000	-11.70920563
227.50000000	-80.00000000	-11.96136475
228.00000000	-80.00000000	-12.19080734
228.50000000	-80.00000000	-12.39719391
229.00000000	-80.00000000	-11.58070374
229.50000000	-80.00000000	-11.74196243
230.00000000	-80.00000000	-11.88211441
230.50000000	-80.00000000	-12.00267410
231.00000000	-80.00000000	-12.10536194
231.50000000	-80.00000000	-12.19219208
232.00000000	-80.00000000	-11.26099014
232.50000000	-80.00000000	-11.31365967
233.00000000	-80.00000000	-11.35274124
233.50000000	-80.00000000	-11.37886810
234.00000000	-80.00000000	-11.38920975
234.50000000	-80.00000000	-11.38121414
235.00000000	-80.00000000	-11.35503006
235.50000000	-80.00000000	-10.31192398
236.00000000	-80.00000000	-10.24724960
236.50000000	-80.00000000	-10.15784454
237.00000000	-80.00000000	-10.04230118
237.50000000	-80.00000000	-9.89631271
238.00000000	-80.00000000	-9.71740341
238.50000000	-80.00000000	-9.50411224
239.00000000	-80.00000000	-9.25382996
239.50000000	-80.00000000	-8.96889114
240.00000000	-80.00000000	-8.65282440
240.50000000	-80.00000000	-8.30838013
241.00000000	-80.00000000	-7.94388580
241.50000000	-80.00000000	-7.55912399
242.00000000	-80.00000000	-7.16282654
242.50000000	-80.00000000	-6.76087570
243.00000000	-80.00000000	-6.35943222
243.50000000	-80.00000000	-5.96178436
244.00000000	-80.00000000	-6.57012558
244.50000000	-80.00000000	-6.18486404
245.00000000	-80.00000000	-5.80714035
245.50000000	-80.00000000	-5.43036652
246.00000000	-80.00000000	-5.04938126
246.50000000	-80.00000000	-4.65821838
247.00000000	-80.00000000	-5.25018692
247.50000000	-80.00000000	-4.82044983
248.00000000	-80.00000000	-4.36110306
248.50000000	-80.00000000	-3.86704254
249.00000000	-80.00000000	-4.33446121
249.50000000	-80.00000000	-3.76123810
250.00000000	-80.00000000	-3.14701080
250.50000000	-80.00000000	-3.49505615
251.00000000	-80.00000000	-2.80563354
251.50000000	-80.00000000	-3.08067703
252.00000000	-80.00000000	-2.33124542
252.50000000	-80.00000000	-2.56347275
253.00000000	-80.00000000	-1.78048706
253.50000000	-80.00000000	-1.98943329
254.00000000	-80.00000000	-2.19718933
254.50000000	-80.00000000	-1.41016388
255.00000000	-80.00000000	-1.63452148
255.50000000	-80.00000000	-1.87596893
256.00000000	-80.00000000	-2.13764954
256.50000000	-80.00000000	-1.42345428
257.00000000	-80.00000000	-1.73633575
257.50000000	-80.00000000	-2.07833099
258.00000000	-80.00000000	-2.45139313
258.50000000	-80.00000000	-2.85507202
259.00000000	-80.00000000	-3.29046631
259.50000000	-80.00000000	-2.75556183
260.00000000	-80.00000000	-3.25020599
260.50000000	-80.00000000	-3.77187347
261.00000000	-80.00000000	-4.31752014
261.50000000	-80.00000000	-4.88362885
262.00000000	-80.00000000	-4.46593475
262.50000000	-80.00000000	-5.05990601
263.00000000	-80.00000000	-5.66048431
263.50000000	-80.00000000	-5.26222229
264.00000000	-80.00000000	-5.85880280
264.50000000	-80.00000000	-6.44528961
265.00000000	-80.00000000	-7.01534271
265.50000000	-80.00000000	-7.56290436
266.00000000	-80.00000000	-7.08220673
266.50000000	-80.00000000	-7.56712341
267.00000000	-80.00000000	-8.01179504
267.50000000	-80.00000000	-8.41076660
268.00000000	-80.00000000	-8.75911713
268.50000000	-80.00000000	-8.05274200
269.00000000	-80.00000000	-8.28849030
269.50000000	-80.00000000	-8.46427917
270.00000000	-80.00000000	-8.57934570
270.50000000	-80.00000000	-8.63414764
271.00000000	-80.00000000	-8.63084412
271.50000000	-80.00000000	-8.57276154
272.00000000	-80.00000000	-7.46475983
272.50000000	-80.00000000	-7.31304169
273.00000000	-80.00000000	-7.12474060
273.50000000	-80.00000000	-6.90826416
274.00000000	-80.00000000	-6.67259979
274.50000000	-80.00000000	-6.42749786
275.00000000	-80.00000000	-7.18295288
275.50000000	-80.00000000	-5.94934845
276.00000000	-80.00000000	-6.73686981
276.50000000	-80.00000000	-6.55541229
277.00000000	-80.00000000	-6.41458893
277.50000000	-80.00000000	-6.32353210
278.00000000	-80.00000000	-6.29060364
278.50000000	-80.00000000	-7.32340240
279.00000000	-80.00000000	-7.42848206
279.50000000	-80.00000000	-7.61105347
280.00000000	-80.00000000	-7.87507629
280.50000000	-80.00000000	-8.22297668
281.00000000	-80.00000000	-8.65536499
281.50000000	-80.00000000	-10.17121124
282.00000000	-80.00000000	-10.76762390
282.50000000	-80.00000000	-11.44002533
283.00000000	-80.00000000	-12.18209076
283.50000000	-80.00000000	-13.98603058
284.00000000	-80.00000000	-14.84256744
284.50000000	-80.00000000	-15.74136353
285.00000000	-80.00000000	-16.67115784
285.50000000	-80.00000000	-17.62050629
286.00000000	-80.00000000	-18.57775879
286.50000000	-80.00000000	-19.53186035
287.00000000	-80.00000000	-20.47257996
287.50000000	-80.00000000	-22.39077759
288.00000000	-80.00000000	-23.27862549
288.50000000	-80.00000000	-24.12998962
289.00000000	-80.00000000	-24.94069672
289.50000000	-80.00000000	-25.70848846
290.00000000	-80.00000000	-26.43315125
290.50000000	-80.00000000	-27.11608124
291.00000000	-80.00000000	-27.76051331
291.50000000	-80.00000000	-28.37085724
292.00000000	-80.00000000	-28.95244598
292.50000000	-80.00000000	-29.51135254
293.00000000	-80.00000000	-29.05390930
