243.50000000	-74.50000000	-36.58760071
244.00000000	-74.50000000	-36.47852707
244.50000000	-74.50000000	-36.58585739
245.00000000	-74.50000000	-36.90050888
245.50000000	-74.50000000	-37.24979401
246.00000000	-74.50000000	-37.43312073
246.50000000	-74.50000000	-37.39422607
247.00000000	-74.50000000	-37.41629028
247.50000000	-74.50000000	-37.51359177
248.00000000	-74.50000000	-37.72201538
248.50000000	-74.50000000	-38.41540527
249.00000000	-74.50000000	-39.09125137
249.50000000	-74.50000000	-39.49851608
258.00000000	-74.50000000	-36.23576355
258.50000000	-74.50000000	-35.76288605
259.00000000	-74.50000000	-35.09579468
259.50000000	-74.50000000	-34.42133713
260.00000000	-74.50000000	-33.95064163
260.50000000	-74.50000000	-33.60800552
261.00000000	-74.50000000	-33.40965271
261.50000000	-74.50000000	-33.10080338
262.00000000	-74.50000000	-32.52805328
262.50000000	-74.50000000	-31.89136505
263.00000000	-74.50000000	-31.18395996
263.50000000	-74.50000000	-30.41898346
264.00000000	-74.50000000	-29.48821259
264.50000000	-74.50000000	-28.30513382
265.00000000	-74.50000000	-27.32392502
265.50000000	-74.50000000	-26.95299149
266.00000000	-74.50000000	-26.72451401
266.50000000	-74.50000000	-26.56817245
267.00000000	-74.50000000	-26.48747253
267.50000000	-74.50000000	-26.50428009
268.00000000	-74.50000000	-26.40024948
268.50000000	-74.50000000	-26.38228989
269.00000000	-74.50000000	-26.32993698
269.50000000	-74.50000000	-26.93729401
270.00000000	-74.50000000	-27.48266983
270.50000000	-74.50000000	-27.70700455
271.00000000	-74.50000000	-27.95700073
271.50000000	-74.50000000	-28.22560120
272.00000000	-74.50000000	-28.24998093
272.50000000	-74.50000000	-28.19394302
273.00000000	-74.50000000	-28.28060913
273.50000000	-74.50000000	-28.24384308
274.00000000	-74.50000000	-28.00241470
274.50000000	-74.50000000	-27.86651611
275.00000000	-74.50000000	-27.81561279
275.50000000	-74.50000000	-28.04259872
276.00000000	-74.50000000	-28.45401001
276.50000000	-74.50000000	-28.82786179
277.00000000	-74.50000000	-29.17550659
277.50000000	-74.50000000	-29.60000229
278.00000000	-74.50000000	-29.99536896
278.50000000	-74.50000000	-30.28325272
279.00000000	-74.50000000	-30.33069229
279.50000000	-74.50000000	-30.32440186
280.00000000	-74.50000000	-30.48075104
280.50000000	-74.50000000	-30.71337128
281.00000000	-74.50000000	-31.29032516
281.50000000	-74.50000000	-31.93736267
282.00000000	-74.50000000	-32.60441208
282.50000000	-74.50000000	-33.52902985
283.00000000	-74.50000000	-34.22885895
283.50000000	-74.50000000	-34.77036667
284.00000000	-74.50000000	-34.73345947
284.50000000	-74.50000000	-34.43029022
285.00000000	-74.50000000	-34.40414810
285.50000000	-74.50000000	-35.00093842
286.00000000	-74.50000000	-36.31116104
286.50000000	-74.50000000	-37.78987885
287.00000000	-74.50000000	-38.83640671
287.50000000	-74.50000000	-39.24554443
288.00000000	-74.50000000	-39.41356277
288.50000000	-74.50000000	-39.56658554
289.00000000	-74.50000000	-39.91718292
289.50000000	-74.50000000	-40.39399719
290.00000000	-74.50000000	-40.73172379
290.50000000	-74.50000000	-41.26852798
291.00000000	-74.50000000	-42.51860046
291.50000000	-74.50000000	-43.73622131
292.00000000	-74.50000000	-44.67826843
292.50000000	-74.50000000	-45.70712662
293.00000000	-74.50000000	-46.79340744
293.50000000	-74.50000000	-47.71511459
294.00000000	-74.50000000	-48.43743896
294.50000000	-74.50000000	-48.41659546
295.00000000	-74.50000000	-47.67263794
295.50000000	-74.50000000	-46.72851562
296.00000000	-74.50000000	-46.07290649
296.50000000	-74.50000000	-45.96233368
297.00000000	-74.50000000	-45.88637543
297.50000000	-74.50000000	-45.68098450
298.00000000	-74.50000000	-45.13532257
298.50000000	-74.50000000	-44.19487762
299.00000000	-74.50000000	-43.25996399
359.50000000	-74.50000000	-19.95553589
360.00000000	-74.50000000	-22.28051758
0.00000000	-75.00000000	-24.62500000
0.50000000	-75.00000000	-26.01745605
223.50000000	-75.00000000	-32.71354294
224.00000000	-75.00000000	-33.46403503
224.50000000	-75.00000000	-33.77472687
225.00000000	-75.00000000	-33.78972244
225.50000000	-75.00000000	-33.71895218
226.00000000	-75.00000000	-33.79335403
226.50000000	-75.00000000	-34.24663544
227.00000000	-75.00000000	-34.64839935
227.50000000	-75.00000000	-35.02730560
228.00000000	-75.00000000	-35.40254211
228.50000000	-75.00000000	-35.78448868
229.00000000	-75.00000000	-36.17447281
229.50000000	-75.00000000	-36.53029251
230.00000000	-75.00000000	-36.86561966
230.50000000	-75.00000000	-37.17754364
231.00000000	-75.00000000	-37.37895966
231.50000000	-75.00000000	-37.55096436
232.00000000	-75.00000000	-37.69103241
232.50000000	-75.00000000	-37.73928070
233.00000000	-75.00000000	-37.65797806
233.50000000	-75.00000000	-37.47803497
234.00000000	-75.00000000	-37.32680130
234.50000000	-75.00000000	-37.15438080
235.00000000	-75.00000000	-36.89187241
235.50000000	-75.00000000	-36.67679977
236.00000000	-75.00000000	-36.73856735
236.50000000	-75.00000000	-36.92871857
237.00000000	-75.00000000	-37.23941040
237.50000000	-75.00000000	-37.65726089
238.00000000	-75.00000000	-38.14953232
238.50000000	-75.00000000	-38.70363998
239.00000000	-75.00000000	-39.24985886
239.50000000	-75.00000000	-39.55929947
240.00000000	-75.00000000	-39.88160324
240.50000000	-75.00000000	-40.33750153
241.00000000	-75.00000000	-40.88428116
241.50000000	-75.00000000	-41.32410049
242.00000000	-75.00000000	-41.61507416
242.50000000	-75.00000000	-41.86729813
243.00000000	-75.00000000	-42.17635345
243.50000000	-75.00000000	-42.40446091
244.00000000	-75.00000000	-43.03462982
244.50000000	-75.00000000	-43.83880234
245.00000000	-75.00000000	-44.30522156
245.50000000	-75.00000000	-44.10924149
246.00000000	-75.00000000	-43.54869461
246.50000000	-75.00000000	-42.67126846
247.00000000	-75.00000000	-42.09544754
247.50000000	-75.00000000	-42.22130203
248.00000000	-75.00000000	-42.42129898
248.50000000	-75.00000000	-42.68481064
249.00000000	-75.00000000	-43.00799942
249.50000000	-75.00000000	-43.32368851
250.00000000	-75.00000000	-43.65661240
250.50000000	-75.00000000	-43.82267761
252.50000000	-75.00000000	-42.59621429
253.00000000	-75.00000000	-42.31001663
253.50000000	-75.00000000	-42.04831314
254.00000000	-75.00000000	-41.72884369
254.50000000	-75.00000000	-41.22626495
255.00000000	-75.00000000	-40.54134369
258.50000000	-75.00000000	-34.26252365
259.00000000	-75.00000000	-33.75276947
259.50000000	-75.00000000	-33.02151871
260.00000000	-75.00000000	-32.43195343
260.50000000	-75.00000000	-31.92133331
261.00000000	-75.00000000	-31.44484329
261.50000000	-75.00000000	-30.83420181
262.00000000	-75.00000000	-30.10648346
262.50000000	-75.00000000	-29.30983353
263.00000000	-75.00000000	-28.51121140
263.50000000	-75.00000000	-27.66798019
264.00000000	-75.00000000	-26.79150772
264.50000000	-75.00000000	-25.96997452
265.00000000	-75.00000000	-25.31729889
265.50000000	-75.00000000	-24.80382156
266.00000000	-75.00000000	-24.34053802
266.50000000	-75.00000000	-24.00848770
267.00000000	-75.00000000	-23.87176514
267.50000000	-75.00000000	-23.94997025
268.00000000	-75.00000000	-24.13887787
268.50000000	-75.00000000	-24.30549240
269.00000000	-75.00000000	-24.37865067
269.50000000	-75.00000000	-24.56175995
270.00000000	-75.00000000	-25.10155106
270.50000000	-75.00000000	-25.40388870
271.00000000	-75.00000000	-25.78929901
271.50000000	-75.00000000	-26.09148788
272.00000000	-75.00000000	-26.21430206
272.50000000	-75.00000000	-26.15317917
273.00000000	-75.00000000	-26.03680801
273.50000000	-75.00000000	-26.05272293
274.00000000	-75.00000000	-26.18222809
274.50000000	-75.00000000	-26.36515045
275.00000000	-75.00000000	-26.52193451
275.50000000	-75.00000000	-26.80039978
276.00000000	-75.00000000	-27.16524887
276.50000000	-75.00000000	-27.53192139
277.00000000	-75.00000000	-27.87617493
277.50000000	-75.00000000	-28.22327042
278.00000000	-75.00000000	-28.57351685
278.50000000	-75.00000000	-28.89265823
279.00000000	-75.00000000	-29.28300095
279.50000000	-75.00000000	-29.77524948
280.00000000	-75.00000000	-30.20453644
280.50000000	-75.00000000	-30.31417465
281.00000000	-75.00000000	-29.82261276
281.50000000	-75.00000000	-29.01131439
282.00000000	-75.00000000	-28.43279648
282.50000000	-75.00000000	-28.71804047
283.00000000	-75.00000000	-29.37830734
283.50000000	-75.00000000	-30.14820099
284.00000000	-75.00000000	-30.80139923
284.50000000	-75.00000000	-31.15125275
285.00000000	-75.00000000	-31.41392136
285.50000000	-75.00000000	-31.64431381
286.00000000	-75.00000000	-32.35266495
286.50000000	-75.00000000	-33.83518982
287.00000000	-75.00000000	-35.25755310
287.50000000	-75.00000000	-36.26515961
288.00000000	-75.00000000	-37.45812225
288.50000000	-75.00000000	-38.10458374
289.00000000	-75.00000000	-38.46452332
289.50000000	-75.00000000	-39.38923645
290.00000000	-75.00000000	-40.99707031
290.50000000	-75.00000000	-42.51976013
291.00000000	-75.00000000	-43.78623199
291.50000000	-75.00000000	-44.54540253
292.00000000	-75.00000000	-44.74797058
292.50000000	-75.00000000	-44.97481537
293.00000000	-75.00000000	-45.81229401
293.50000000	-75.00000000	-47.10266876
294.00000000	-75.00000000	-48.35668182
294.50000000	-75.00000000	-49.56806946
295.00000000	-75.00000000	-49.72944641
295.50000000	-75.00000000	-48.56272888
296.00000000	-75.00000000	-47.08846283
296.50000000	-75.00000000	-45.75524902
297.00000000	-75.00000000	-44.93295288
297.50000000	-75.00000000	-44.49349976
298.00000000	-75.00000000	-44.28292084
298.50000000	-75.00000000	-44.60811615
299.00000000	-75.00000000	-44.42242432
359.50000000	-75.00000000	-22.96679688
360.00000000	-75.00000000	-24.62500000
0.00000000	-75.50000000	-24.52906799
0.50000000	-75.50000000	-25.61892700
214.50000000	-75.50000000	-14.18187714
215.00000000	-75.50000000	-15.66094971
215.50000000	-75.50000000	-17.04177094
216.00000000	-75.50000000	-18.32917023
216.50000000	-75.50000000	-19.41516876
217.00000000	-75.50000000	-20.19929886
217.50000000	-75.50000000	-20.85282898
218.00000000	-75.50000000	-21.57811356
218.50000000	-75.50000000	-22.70116806
219.50000000	-75.50000000	-25.89527893
220.00000000	-75.50000000	-27.45976639
220.50000000	-75.50000000	-28.84493637
221.00000000	-75.50000000	-29.84908295
221.50000000	-75.50000000	-30.71545029
222.00000000	-75.50000000	-31.54690170
222.50000000	-75.50000000	-32.07661438
223.00000000	-75.50000000	-32.48406982
223.50000000	-75.50000000	-33.05413055
224.00000000	-75.50000000	-33.92816925
224.50000000	-75.50000000	-35.01061630
225.00000000	-75.50000000	-35.99208450
225.50000000	-75.50000000	-36.63567734
226.00000000	-75.50000000	-37.22976303
226.50000000	-75.50000000	-37.83837128
227.00000000	-75.50000000	-38.32470322
227.50000000	-75.50000000	-38.14527130
228.00000000	-75.50000000	-37.68417740
228.50000000	-75.50000000	-37.30408859
229.00000000	-75.50000000	-37.55554199
229.50000000	-75.50000000	-38.68288422
230.00000000	-75.50000000	-40.46604538
230.50000000	-75.50000000	-42.31349945
231.00000000	-75.50000000	-43.60790634
231.50000000	-75.50000000	-43.99927521
232.00000000	-75.50000000	-43.65840912
232.50000000	-75.50000000	-42.86563492
233.00000000	-75.50000000	-41.84326172
233.50000000	-75.50000000	-40.88449478
234.00000000	-75.50000000	-40.29676819
234.50000000	-75.50000000	-40.10028076
235.00000000	-75.50000000	-40.07272339
235.50000000	-75.50000000	-40.11968231
236.00000000	-75.50000000	-40.25260925
236.50000000	-75.50000000	-40.55747604
237.00000000	-75.50000000	-40.88490295
237.50000000	-75.50000000	-41.35412216
238.00000000	-75.50000000	-41.96901321
238.50000000	-75.50000000	-42.54137039
239.00000000	-75.50000000	-43.09418106
239.50000000	-75.50000000	-43.72052765
240.00000000	-75.50000000	-44.36264038
240.50000000	-75.50000000	-44.92269135
241.00000000	-75.50000000	-45.53052902
241.50000000	-75.50000000	-46.18431854
242.00000000	-75.50000000	-46.82536697
242.50000000	-75.50000000	-47.23147583
243.00000000	-75.50000000	-46.82719040
243.50000000	-75.50000000	-46.13116837
244.00000000	-75.50000000	-45.58111191
244.50000000	-75.50000000	-45.52876282
245.00000000	-75.50000000	-45.88433838
245.50000000	-75.50000000	-46.42705154
246.00000000	-75.50000000	-46.87849808
246.50000000	-75.50000000	-46.96166611
247.00000000	-75.50000000	-47.22062302
247.50000000	-75.50000000	-47.53860474
248.00000000	-75.50000000	-47.76812744
248.50000000	-75.50000000	-48.07011032
249.00000000	-75.50000000	-48.37432098
249.50000000	-75.50000000	-48.61884689
250.00000000	-75.50000000	-48.74285126
250.50000000	-75.50000000	-48.54372406
251.00000000	-75.50000000	-48.21100616
251.50000000	-75.50000000	-47.81388092
252.00000000	-75.50000000	-47.25986862
252.50000000	-75.50000000	-46.58281326
253.00000000	-75.50000000	-45.83400726
253.50000000	-75.50000000	-45.02017593
254.00000000	-75.50000000	-44.17266846
254.50000000	-75.50000000	-43.31729126
255.00000000	-75.50000000	-42.40837860
255.50000000	-75.50000000	-41.43568039
256.00000000	-75.50000000	-40.33963013
256.50000000	-75.50000000	-39.16968536
257.00000000	-75.50000000	-37.95631790
257.50000000	-75.50000000	-36.74909210
258.00000000	-75.50000000	-35.44374847
258.50000000	-75.50000000	-34.10672379
259.00000000	-75.50000000	-32.99373245
259.50000000	-75.50000000	-31.79945374
260.00000000	-75.50000000	-30.51559067
260.50000000	-75.50000000	-29.23955536
261.00000000	-75.50000000	-28.01728439
261.50000000	-75.50000000	-26.99875259
262.00000000	-75.50000000	-26.05684280
262.50000000	-75.50000000	-25.15367508
263.00000000	-75.50000000	-24.30178452
263.50000000	-75.50000000	-23.67008209
264.00000000	-75.50000000	-23.13505936
264.50000000	-75.50000000	-22.64342499
265.00000000	-75.50000000	-22.14850998
265.50000000	-75.50000000	-21.62525940
266.00000000	-75.50000000	-21.19387817
266.50000000	-75.50000000	-20.98942184
267.00000000	-75.50000000	-21.09832764
267.50000000	-75.50000000	-21.34056091
268.00000000	-75.50000000	-21.61341476
268.50000000	-75.50000000	-21.85305786
269.00000000	-75.50000000	-22.24435043
269.50000000	-75.50000000	-22.67927933
270.00000000	-75.50000000	-23.02840042
270.50000000	-75.50000000	-23.22251511
271.00000000	-75.50000000	-23.34865952
271.50000000	-75.50000000	-23.54765701
272.00000000	-75.50000000	-23.89573669
272.50000000	-75.50000000	-24.36118317
273.00000000	-75.50000000	-24.87113571
273.50000000	-75.50000000	-25.23042679
274.00000000	-75.50000000	-25.45404434
274.50000000	-75.50000000	-25.53943634
275.00000000	-75.50000000	-25.60784531
275.50000000	-75.50000000	-25.77523804
276.00000000	-75.50000000	-25.92015457
276.50000000	-75.50000000	-26.02962494
277.00000000	-75.50000000	-26.10348511
277.50000000	-75.50000000	-26.24860001
278.00000000	-75.50000000	-26.29988861
278.50000000	-75.50000000	-26.37387085
279.00000000	-75.50000000	-26.67181015
279.50000000	-75.50000000	-27.09369659
280.00000000	-75.50000000	-28.12066650
280.50000000	-75.50000000	-28.95001221
281.00000000	-75.50000000	-29.05642319
281.50000000	-75.50000000	-28.96715927
282.00000000	-75.50000000	-28.50822830
282.50000000	-75.50000000	-27.91920853
283.00000000	-75.50000000	-28.25745010
283.50000000	-75.50000000	-28.84085464
284.00000000	-75.50000000	-29.29679108
284.50000000	-75.50000000	-29.58811951
285.00000000	-75.50000000	-29.72521210
285.50000000	-75.50000000	-29.82202911
286.00000000	-75.50000000	-29.99005127
286.50000000	-75.50000000	-30.43561554
287.00000000	-75.50000000	-30.97777557
287.50000000	-75.50000000	-31.60058594
288.00000000	-75.50000000	-32.51853180
288.50000000	-75.50000000	-33.86669159
289.00000000	-75.50000000	-35.35751343
289.50000000	-75.50000000	-37.13404846
290.00000000	-75.50000000	-39.00586700
290.50000000	-75.50000000	-40.91747284
291.00000000	-75.50000000	-43.02910614
291.50000000	-75.50000000	-45.12049103
292.00000000	-75.50000000	-46.85405731
292.50000000	-75.50000000	-47.92423248
293.00000000	-75.50000000	-48.85742188
293.50000000	-75.50000000	-49.54855347
294.00000000	-75.50000000	-49.86981201
294.50000000	-75.50000000	-50.04367065
295.00000000	-75.50000000	-50.05053711
295.50000000	-75.50000000	-49.85034943
296.00000000	-75.50000000	-49.43839264
296.50000000	-75.50000000	-48.83193207
297.00000000	-75.50000000	-48.21733856
297.50000000	-75.50000000	-47.83844757
298.00000000	-75.50000000	-48.14443970
298.50000000	-75.50000000	-48.88997650
299.00000000	-75.50000000	-49.66152954
299.50000000	-75.50000000	-50.48396301
300.00000000	-75.50000000	-51.38925934
300.50000000	-75.50000000	-52.38559723
301.00000000	-75.50000000	-53.43000031
301.50000000	-75.50000000	-54.46986389
359.50000000	-75.50000000	-23.03067017
360.00000000	-75.50000000	-24.52906799
0.00000000	-76.00000000	-20.75273132
0.50000000	-76.00000000	-21.82546997
212.00000000	-76.00000000	-8.61695099
212.50000000	-76.00000000	-9.29351044
213.00000000	-76.00000000	-10.22702789
213.50000000	-76.00000000	-11.67697906
214.00000000	-76.00000000	-13.54162598
214.50000000	-76.00000000	-15.48587036
215.00000000	-76.00000000	-17.40076447
215.50000000	-76.00000000	-19.23052216
216.00000000	-76.00000000	-20.86869812
216.50000000	-76.00000000	-22.33612823
217.00000000	-76.00000000	-23.75603485
217.50000000	-76.00000000	-25.17737961
218.00000000	-76.00000000	-26.54179382
218.50000000	-76.00000000	-27.72010040
219.00000000	-76.00000000	-28.81408691
219.50000000	-76.00000000	-29.82779694
220.00000000	-76.00000000	-30.82475281
220.50000000	-76.00000000	-31.83731842
221.00000000	-76.00000000	-32.75740814
221.50000000	-76.00000000	-33.63733292
222.00000000	-76.00000000	-34.52381516
222.50000000	-76.00000000	-35.48247528
223.00000000	-76.00000000	-37.20384979
223.50000000	-76.00000000	-39.60163879
224.00000000	-76.00000000	-42.14492798
224.50000000	-76.00000000	-44.33469391
225.00000000	-76.00000000	-45.67464828
225.50000000	-76.00000000	-45.99652863
226.00000000	-76.00000000	-45.89408112
226.50000000	-76.00000000	-45.61768723
227.00000000	-76.00000000	-45.24025726
227.50000000	-76.00000000	-44.86805344
228.00000000	-76.00000000	-44.56928253
228.50000000	-76.00000000	-44.05300903
229.00000000	-76.00000000	-43.44527435
229.50000000	-76.00000000	-42.74646759
230.00000000	-76.00000000	-42.44456863
230.50000000	-76.00000000	-43.08991241
231.00000000	-76.00000000	-43.82081223
231.50000000	-76.00000000	-44.67842865
232.00000000	-76.00000000	-45.47856903
232.50000000	-76.00000000	-46.26166153
233.00000000	-76.00000000	-46.85514069
233.50000000	-76.00000000	-47.08673859
234.00000000	-76.00000000	-46.72388458
234.50000000	-76.00000000	-46.07982635
235.00000000	-76.00000000	-45.71745682
235.50000000	-76.00000000	-45.89093018
236.00000000	-76.00000000	-46.15427017
236.50000000	-76.00000000	-46.34963226
237.00000000	-76.00000000	-46.32661057
237.50000000	-76.00000000	-45.90069199
238.00000000	-76.00000000	-45.21622467
238.50000000	-76.00000000	-44.54626083
239.00000000	-76.00000000	-44.31956100
239.50000000	-76.00000000	-44.74378204
240.00000000	-76.00000000	-45.15583801
240.50000000	-76.00000000	-45.53002167
241.00000000	-76.00000000	-46.04579926
241.50000000	-76.00000000	-47.04225159
242.00000000	-76.00000000	-48.60942841
242.50000000	-76.00000000	-50.10873795
243.00000000	-76.00000000	-51.00691986
243.50000000	-76.00000000	-51.63850403
244.00000000	-76.00000000	-51.36132812
244.50000000	-76.00000000	-50.47412491
245.00000000	-76.00000000	-49.85294342
245.50000000	-76.00000000	-50.03129196
246.00000000	-76.00000000	-50.37506104
246.50000000	-76.00000000	-50.88912582
247.00000000	-76.00000000	-51.78085327
247.50000000	-76.00000000	-52.04825592
248.00000000	-76.00000000	-52.14812088
248.50000000	-76.00000000	-52.28060532
249.00000000	-76.00000000	-52.39994812
249.50000000	-76.00000000	-52.25835419
250.00000000	-76.00000000	-51.90846252
250.50000000	-76.00000000	-51.37504196
251.00000000	-76.00000000	-50.74119568
251.50000000	-76.00000000	-50.04311752
252.00000000	-76.00000000	-49.20698547
252.50000000	-76.00000000	-48.34222031
253.00000000	-76.00000000	-47.49211502
253.50000000	-76.00000000	-46.54072952
254.00000000	-76.00000000	-45.46694946
254.50000000	-76.00000000	-44.31945801
255.00000000	-76.00000000	-43.12378693
255.50000000	-76.00000000	-41.92774200
256.00000000	-76.00000000	-40.77042389
256.50000000	-76.00000000	-39.59442139
257.00000000	-76.00000000	-38.31750107
257.50000000	-76.00000000	-37.05336380
258.00000000	-76.00000000	-35.72787857
258.50000000	-76.00000000	-34.29989624
259.00000000	-76.00000000	-32.88770676
259.50000000	-76.00000000	-31.38491058
260.00000000	-76.00000000	-29.98970032
260.50000000	-76.00000000	-28.77476501
261.00000000	-76.00000000	-27.52399826
261.50000000	-76.00000000	-26.20648193
262.00000000	-76.00000000	-24.98869324
262.50000000	-76.00000000	-24.01959991
263.00000000	-76.00000000	-23.31778717
263.50000000	-76.00000000	-22.89835739
264.00000000	-76.00000000	-22.59664917
264.50000000	-76.00000000	-22.23715210
265.00000000	-76.00000000	-21.71524429
265.50000000	-76.00000000	-21.13928604
266.00000000	-76.00000000	-20.71246338
266.50000000	-76.00000000	-20.62879181
267.00000000	-76.00000000	-20.91686249
267.50000000	-76.00000000	-21.38376999
268.00000000	-76.00000000	-21.82591248
268.50000000	-76.00000000	-22.11917114
269.00000000	-76.00000000	-22.33006668
269.50000000	-76.00000000	-22.50822067
270.00000000	-76.00000000	-22.67293549
270.50000000	-76.00000000	-22.74169922
271.00000000	-76.00000000	-22.74678040
271.50000000	-76.00000000	-22.84579468
272.00000000	-76.00000000	-23.18881226
272.50000000	-76.00000000	-23.79827881
273.00000000	-76.00000000	-24.54613876
273.50000000	-76.00000000	-25.26374817
274.00000000	-76.00000000	-25.82257843
274.50000000	-76.00000000	-26.30814362
275.00000000	-76.00000000	-26.75876617
275.50000000	-76.00000000	-27.20246124
276.00000000	-76.00000000	-27.68580246
276.50000000	-76.00000000	-28.19039917
277.00000000	-76.00000000	-28.67210007
277.50000000	-76.00000000	-29.15533829
278.00000000	-76.00000000	-29.64781952
278.50000000	-76.00000000	-30.20641708
279.00000000	-76.00000000	-30.69757462
279.50000000	-76.00000000	-30.94955063
280.00000000	-76.00000000	-30.89154053
280.50000000	-76.00000000	-30.34471893
281.00000000	-76.00000000	-29.90418625
281.50000000	-76.00000000	-29.82255554
282.00000000	-76.00000000	-29.80986023
282.50000000	-76.00000000	-29.78012848
283.00000000	-76.00000000	-29.75649643
283.50000000	-76.00000000	-29.91278839
284.00000000	-76.00000000	-30.15969086
284.50000000	-76.00000000	-30.41558075
285.00000000	-76.00000000	-30.66638184
285.50000000	-76.00000000	-30.93982697
286.00000000	-76.00000000	-31.33241272
286.50000000	-76.00000000	-31.86813354
287.00000000	-76.00000000	-32.60564423
287.50000000	-76.00000000	-33.65921783
288.00000000	-76.00000000	-34.92237854
288.50000000	-76.00000000	-36.24375153
289.00000000	-76.00000000	-37.59487915
289.50000000	-76.00000000	-39.16911316
290.00000000	-76.00000000	-40.82103729
290.50000000	-76.00000000	-42.46405029
291.00000000	-76.00000000	-44.01748657
291.50000000	-76.00000000	-45.48597717
292.00000000	-76.00000000	-46.72895813
292.50000000	-76.00000000	-47.82082367
293.00000000	-76.00000000	-48.48341370
293.50000000	-76.00000000	-48.67931366
294.00000000	-76.00000000	-48.42111206
294.50000000	-76.00000000	-48.24598694
295.00000000	-76.00000000	-48.51880646
295.50000000	-76.00000000	-48.96016693
296.00000000	-76.00000000	-49.50436401
296.50000000	-76.00000000	-50.19278717
297.00000000	-76.00000000	-50.98979187
297.50000000	-76.00000000	-51.99217987
298.00000000	-76.00000000	-53.21269989
298.50000000	-76.00000000	-54.42633820
299.00000000	-76.00000000	-55.53876495
299.50000000	-76.00000000	-56.61159515
300.00000000	-76.00000000	-57.61764526
300.50000000	-76.00000000	-58.60035706
301.00000000	-76.00000000	-59.53768921
301.50000000	-76.00000000	-60.36428833
302.00000000	-76.00000000	-61.04871368
302.50000000	-76.00000000	-61.57186127
303.00000000	-76.00000000	-61.91409302
303.50000000	-76.00000000	-62.03593445
304.00000000	-76.00000000	-61.91278076
359.50000000	-76.00000000	-19.31291199
360.00000000	-76.00000000	-20.75273132
0.00000000	-76.50000000	-14.32662964
0.50000000	-76.50000000	-16.23327637
210.00000000	-76.50000000	-8.14655304
210.50000000	-76.50000000	-9.13613892
211.00000000	-76.50000000	-10.21990204
211.50000000	-76.50000000	-11.33100128
212.00000000	-76.50000000	-12.36498260
212.50000000	-76.50000000	-13.11489105
213.00000000	-76.50000000	-13.88492584
213.50000000	-76.50000000	-14.91415405
214.00000000	-76.50000000	-16.34799194
214.50000000	-76.50000000	-18.07735443
215.00000000	-76.50000000	-20.01638794
215.50000000	-76.50000000	-22.16266632
216.00000000	-76.50000000	-24.36740494
216.50000000	-76.50000000	-26.47540665
217.00000000	-76.50000000	-28.33962250
217.50000000	-76.50000000	-29.98326111
218.00000000	-76.50000000	-31.46643066
218.50000000	-76.50000000	-32.79695129
219.00000000	-76.50000000	-33.99053574
219.50000000	-76.50000000	-35.06343460
220.00000000	-76.50000000	-35.96353531
220.50000000	-76.50000000	-36.84166718
221.00000000	-76.50000000	-37.68736649
221.50000000	-76.50000000	-38.50508118
222.00000000	-76.50000000	-39.39620209
222.50000000	-76.50000000	-40.26676559
223.00000000	-76.50000000	-41.00748825
223.50000000	-76.50000000	-41.60394287
224.00000000	-76.50000000	-42.10826492
224.50000000	-76.50000000	-42.54670715
225.00000000	-76.50000000	-42.92234039
225.50000000	-76.50000000	-43.18249893
226.00000000	-76.50000000	-43.35066223
226.50000000	-76.50000000	-43.44390488
227.00000000	-76.50000000	-43.41378021
227.50000000	-76.50000000	-43.12483215
228.00000000	-76.50000000	-42.51337433
228.50000000	-76.50000000	-41.91366196
229.00000000	-76.50000000	-41.52760696
229.50000000	-76.50000000	-41.16874313
230.00000000	-76.50000000	-40.91788864
230.50000000	-76.50000000	-41.32125092
231.00000000	-76.50000000	-42.02900696
231.50000000	-76.50000000	-42.98914337
232.00000000	-76.50000000	-43.92989349
232.50000000	-76.50000000	-44.84184647
233.00000000	-76.50000000	-45.73391342
233.50000000	-76.50000000	-46.58961105
234.00000000	-76.50000000	-47.32841492
234.50000000	-76.50000000	-47.88058090
235.00000000	-76.50000000	-48.20210648
235.50000000	-76.50000000	-48.16186523
236.00000000	-76.50000000	-47.63240814
236.50000000	-76.50000000	-46.92987442
237.00000000	-76.50000000	-46.10319138
237.50000000	-76.50000000	-45.30575562
238.00000000	-76.50000000	-44.81941223
238.50000000	-76.50000000	-44.53687286
239.00000000	-76.50000000	-44.33333588
239.50000000	-76.50000000	-44.24947739
240.00000000	-76.50000000	-44.27423859
240.50000000	-76.50000000	-45.59498978
241.00000000	-76.50000000	-47.20307541
241.50000000	-76.50000000	-48.80992126
242.00000000	-76.50000000	-49.78538895
242.50000000	-76.50000000	-49.16896439
243.00000000	-76.50000000	-48.09421539
243.50000000	-76.50000000	-47.02876663
244.00000000	-76.50000000	-46.46605301
244.50000000	-76.50000000	-46.62619781
245.00000000	-76.50000000	-47.61620331
245.50000000	-76.50000000	-49.05954742
246.00000000	-76.50000000	-50.62387466
246.50000000	-76.50000000	-52.04074478
247.00000000	-76.50000000	-53.14830780
247.50000000	-76.50000000	-54.08671570
248.00000000	-76.50000000	-54.83068848
248.50000000	-76.50000000	-55.18365097
249.00000000	-76.50000000	-54.81169128
249.50000000	-76.50000000	-53.87808990
250.00000000	-76.50000000	-52.74378586
250.50000000	-76.50000000	-51.74241257
251.00000000	-76.50000000	-50.99322128
251.50000000	-76.50000000	-50.17923355
252.00000000	-76.50000000	-49.40884399
252.50000000	-76.50000000	-48.60426331
253.00000000	-76.50000000	-47.82541275
253.50000000	-76.50000000	-47.11075592
254.00000000	-76.50000000	-46.30918503
254.50000000	-76.50000000	-45.29122543
255.00000000	-76.50000000	-44.15856552
255.50000000	-76.50000000	-42.85366821
256.00000000	-76.50000000	-41.42863846
256.50000000	-76.50000000	-39.94542313
257.00000000	-76.50000000	-38.35903168
257.50000000	-76.50000000	-36.70197678
258.00000000	-76.50000000	-35.08240891
258.50000000	-76.50000000	-33.52034760
259.00000000	-76.50000000	-31.96013260
259.50000000	-76.50000000	-30.45591736
260.00000000	-76.50000000	-29.15504074
260.50000000	-76.50000000	-27.94447327
261.00000000	-76.50000000	-26.68540955
261.50000000	-76.50000000	-25.53119659
262.00000000	-76.50000000	-24.51196289
262.50000000	-76.50000000	-23.66455078
263.00000000	-76.50000000	-22.84278107
263.50000000	-76.50000000	-22.12448120
264.00000000	-76.50000000	-21.53043365
264.50000000	-76.50000000	-21.14142609
265.00000000	-76.50000000	-20.89110565
265.50000000	-76.50000000	-20.75757599
266.00000000	-76.50000000	-20.70269775
266.50000000	-76.50000000	-20.72052765
267.00000000	-76.50000000	-20.86308289
267.50000000	-76.50000000	-21.05399323
268.00000000	-76.50000000	-21.22400665
268.50000000	-76.50000000	-21.31755829
269.00000000	-76.50000000	-21.34117889
269.50000000	-76.50000000	-21.34137726
270.00000000	-76.50000000	-21.36829758
270.50000000	-76.50000000	-21.35269928
271.00000000	-76.50000000	-21.28436661
271.50000000	-76.50000000	-21.30353165
272.00000000	-76.50000000	-21.54097748
272.50000000	-76.50000000	-22.07994461
273.00000000	-76.50000000	-22.79832458
273.50000000	-76.50000000	-23.51744080
274.00000000	-76.50000000	-24.13771057
274.50000000	-76.50000000	-24.53938675
275.00000000	-76.50000000	-24.84126663
275.50000000	-76.50000000	-25.19681168
276.00000000	-76.50000000	-25.68120193
276.50000000	-76.50000000	-26.27460861
277.00000000	-76.50000000	-26.83943558
277.50000000	-76.50000000	-27.48668289
278.00000000	-76.50000000	-28.57614517
278.50000000	-76.50000000	-30.08560181
279.00000000	-76.50000000	-31.25998688
279.50000000	-76.50000000	-32.25359344
280.00000000	-76.50000000	-32.97645569
280.50000000	-76.50000000	-33.49011230
281.00000000	-76.50000000	-34.12048721
281.50000000	-76.50000000	-34.28430176
282.00000000	-76.50000000	-33.80702591
282.50000000	-76.50000000	-32.78151321
283.00000000	-76.50000000	-31.92400360
283.50000000	-76.50000000	-31.60085297
284.00000000	-76.50000000	-31.83527374
284.50000000	-76.50000000	-32.27156067
285.00000000	-76.50000000	-32.67089844
285.50000000	-76.50000000	-33.02997589
286.00000000	-76.50000000	-33.49476624
286.50000000	-76.50000000	-34.03084564
287.00000000	-76.50000000	-34.65763855
287.50000000	-76.50000000	-35.33098602
288.00000000	-76.50000000	-35.79225922
288.50000000	-76.50000000	-36.10517883
289.00000000	-76.50000000	-36.57487488
289.50000000	-76.50000000	-37.24491882
290.00000000	-76.50000000	-37.77281189
290.50000000	-76.50000000	-38.29516602
291.00000000	-76.50000000	-38.92887115
291.50000000	-76.50000000	-39.75759888
292.00000000	-76.50000000	-40.97435760
292.50000000	-76.50000000	-42.43274689
293.00000000	-76.50000000	-43.95111847
293.50000000	-76.50000000	-45.39233398
294.00000000	-76.50000000	-46.74992371
294.50000000	-76.50000000	-48.13719940
295.00000000	-76.50000000	-49.54769135
295.50000000	-76.50000000	-50.89676666
296.00000000	-76.50000000	-52.04744720
296.50000000	-76.50000000	-53.17093658
297.00000000	-76.50000000	-54.32522583
297.50000000	-76.50000000	-55.52191925
298.00000000	-76.50000000	-56.77751923
298.50000000	-76.50000000	-57.98931122
299.00000000	-76.50000000	-59.17585754
299.50000000	-76.50000000	-60.33337402
300.00000000	-76.50000000	-61.45529175
300.50000000	-76.50000000	-62.53813934
301.00000000	-76.50000000	-63.56162262
301.50000000	-76.50000000	-64.50076294
302.00000000	-76.50000000	-65.31073761
302.50000000	-76.50000000	-65.89133453
303.00000000	-76.50000000	-66.36658478
303.50000000	-76.50000000	-66.70292664
304.00000000	-76.50000000	-66.88327026
304.50000000	-76.50000000	-66.84529877
305.00000000	-76.50000000	-66.52428436
305.50000000	-76.50000000	-66.04096222
306.00000000	-76.50000000	-65.52779388
359.50000000	-76.50000000	-12.35215759
360.00000000	-76.50000000	-14.32662964
0.00000000	-77.00000000	-8.37811279
0.50000000	-77.00000000	-11.09231567
208.50000000	-77.00000000	-11.21956635
209.00000000	-77.00000000	-12.41709137
209.50000000	-77.00000000	-13.32512665
210.00000000	-77.00000000	-14.22134399
210.50000000	-77.00000000	-15.12904358
211.00000000	-77.00000000	-16.05299377
211.50000000	-77.00000000	-16.82302856
212.00000000	-77.00000000	-17.23756409
212.50000000	-77.00000000	-17.59995270
213.00000000	-77.00000000	-18.09537506
213.50000000	-77.00000000	-18.87105560
214.00000000	-77.00000000	-20.13964462
214.50000000	-77.00000000	-21.69473267
215.00000000	-77.00000000	-23.43619919
215.50000000	-77.00000000	-25.27920151
216.00000000	-77.00000000	-27.12209320
216.50000000	-77.00000000	-28.98714447
217.00000000	-77.00000000	-30.90244293
217.50000000	-77.00000000	-32.72019958
218.00000000	-77.00000000	-34.35249710
218.50000000	-77.00000000	-35.75754929
219.00000000	-77.00000000	-36.95978165
219.50000000	-77.00000000	-38.05886841
220.00000000	-77.00000000	-39.01668167
220.50000000	-77.00000000	-39.81599045
221.00000000	-77.00000000	-40.22348404
221.50000000	-77.00000000	-40.52539444
222.00000000	-77.00000000	-41.01951981
222.50000000	-77.00000000	-41.50653076
223.00000000	-77.00000000	-41.96279907
223.50000000	-77.00000000	-42.48357010
224.00000000	-77.00000000	-42.66933823
224.50000000	-77.00000000	-42.49296570
225.00000000	-77.00000000	-42.11874390
225.50000000	-77.00000000	-41.67883682
226.00000000	-77.00000000	-41.31222916
226.50000000	-77.00000000	-41.12210464
227.00000000	-77.00000000	-40.98894119
227.50000000	-77.00000000	-40.87855148
228.00000000	-77.00000000	-40.76866150
228.50000000	-77.00000000	-40.66224289
229.00000000	-77.00000000	-40.67055511
229.50000000	-77.00000000	-40.90006256
230.00000000	-77.00000000	-41.22159958
230.50000000	-77.00000000	-41.58770752
231.00000000	-77.00000000	-42.11760712
231.50000000	-77.00000000	-42.94285583
232.00000000	-77.00000000	-45.08716583
232.50000000	-77.00000000	-48.11531830
233.00000000	-77.00000000	-51.16942215
233.50000000	-77.00000000	-53.05757141
234.00000000	-77.00000000	-53.31641769
234.50000000	-77.00000000	-51.87667465
235.00000000	-77.00000000	-49.79159927
235.50000000	-77.00000000	-47.61785889
236.00000000	-77.00000000	-45.92706680
236.50000000	-77.00000000	-45.17586136
237.00000000	-77.00000000	-44.86557770
237.50000000	-77.00000000	-44.79641342
238.00000000	-77.00000000	-44.82052612
238.50000000	-77.00000000	-44.84292984
239.00000000	-77.00000000	-44.71216202
239.50000000	-77.00000000	-44.36502838
240.00000000	-77.00000000	-44.07305908
240.50000000	-77.00000000	-44.35043335
241.00000000	-77.00000000	-45.17679596
241.50000000	-77.00000000	-45.83654404
242.00000000	-77.00000000	-46.36407471
242.50000000	-77.00000000	-47.13130188
243.00000000	-77.00000000	-47.50390625
243.50000000	-77.00000000	-47.64709854
244.00000000	-77.00000000	-47.12327194
244.50000000	-77.00000000	-46.32199097
245.00000000	-77.00000000	-45.69327545
245.50000000	-77.00000000	-45.64344788
246.00000000	-77.00000000	-46.15488434
246.50000000	-77.00000000	-46.62413406
247.00000000	-77.00000000	-47.35693741
247.50000000	-77.00000000	-48.20654297
248.00000000	-77.00000000	-48.85863113
248.50000000	-77.00000000	-49.56616974
249.00000000	-77.00000000	-50.16510391
249.50000000	-77.00000000	-50.56220245
250.00000000	-77.00000000	-50.61819839
250.50000000	-77.00000000	-50.48433685
251.00000000	-77.00000000	-50.18844223
251.50000000	-77.00000000	-49.72886658
252.00000000	-77.00000000	-49.01536560
252.50000000	-77.00000000	-48.08517838
253.00000000	-77.00000000	-47.09552002
253.50000000	-77.00000000	-46.04161072
254.00000000	-77.00000000	-44.92640305
254.50000000	-77.00000000	-43.77810287
255.00000000	-77.00000000	-42.58876419
255.50000000	-77.00000000	-41.33628845
256.00000000	-77.00000000	-39.97016525
256.50000000	-77.00000000	-38.37147903
257.00000000	-77.00000000	-36.68991852
257.50000000	-77.00000000	-35.00699615
258.00000000	-77.00000000	-33.34868622
258.50000000	-77.00000000	-31.83056641
259.00000000	-77.00000000	-30.31200027
259.50000000	-77.00000000	-28.75983429
260.00000000	-77.00000000	-27.33592987
260.50000000	-77.00000000	-26.13819885
261.00000000	-77.00000000	-25.11264801
261.50000000	-77.00000000	-24.27706909
262.00000000	-77.00000000	-23.47786713
262.50000000	-77.00000000	-22.70106506
263.00000000	-77.00000000	-22.07380676
263.50000000	-77.00000000	-21.58756256
264.00000000	-77.00000000	-21.09325409
264.50000000	-77.00000000	-20.59172058
265.00000000	-77.00000000	-20.07915497
265.50000000	-77.00000000	-19.66066742
266.00000000	-77.00000000	-19.42199707
266.50000000	-77.00000000	-19.24674225
267.00000000	-77.00000000	-19.09368134
267.50000000	-77.00000000	-18.96577454
268.00000000	-77.00000000	-18.97640991
268.50000000	-77.00000000	-19.15341949
269.00000000	-77.00000000	-19.41433716
269.50000000	-77.00000000	-19.69817352
270.00000000	-77.00000000	-19.93776703
270.50000000	-77.00000000	-20.10718536
271.00000000	-77.00000000	-20.23504639
271.50000000	-77.00000000	-20.37267303
272.00000000	-77.00000000	-20.58552170
272.50000000	-77.00000000	-20.95539474
273.00000000	-77.00000000	-20.97351837
273.50000000	-77.00000000	-21.06767654
274.00000000	-77.00000000	-21.47512054
274.50000000	-77.00000000	-21.94778442
275.00000000	-77.00000000	-23.17136383
275.50000000	-77.00000000	-24.48455811
276.00000000	-77.00000000	-25.42376328
276.50000000	-77.00000000	-26.11790848
277.00000000	-77.00000000	-26.67293549
277.50000000	-77.00000000	-27.30076599
278.00000000	-77.00000000	-28.25272369
278.50000000	-77.00000000	-29.97693253
279.00000000	-77.00000000	-31.79373932
279.50000000	-77.00000000	-33.76011658
280.00000000	-77.00000000	-35.28775787
280.50000000	-77.00000000	-36.42424774
281.00000000	-77.00000000	-37.37333679
281.50000000	-77.00000000	-37.74440002
282.00000000	-77.00000000	-37.57806396
282.50000000	-77.00000000	-36.53918457
283.00000000	-77.00000000	-34.73187256
283.50000000	-77.00000000	-32.96223450
284.00000000	-77.00000000	-31.94319916
284.50000000	-77.00000000	-31.92549896
285.00000000	-77.00000000	-32.36461639
285.50000000	-77.00000000	-32.99023438
286.00000000	-77.00000000	-33.66915131
286.50000000	-77.00000000	-34.27290344
287.00000000	-77.00000000	-35.10287476
287.50000000	-77.00000000	-36.12514496
288.00000000	-77.00000000	-37.06507111
288.50000000	-77.00000000	-37.79524231
289.00000000	-77.00000000	-38.71726990
289.50000000	-77.00000000	-39.64967346
290.00000000	-77.00000000	-40.49932861
290.50000000	-77.00000000	-41.18996429
291.00000000	-77.00000000	-41.59697723
291.50000000	-77.00000000	-42.05910492
292.00000000	-77.00000000	-42.75980377
292.50000000	-77.00000000	-43.83435822
293.00000000	-77.00000000	-44.49105835
293.50000000	-77.00000000	-45.44545746
294.00000000	-77.00000000	-46.89108276
294.50000000	-77.00000000	-48.35519409
295.00000000	-77.00000000	-49.44111633
295.50000000	-77.00000000	-50.70600891
296.00000000	-77.00000000	-52.13819885
296.50000000	-77.00000000	-53.62405396
297.00000000	-77.00000000	-55.08567047
297.50000000	-77.00000000	-56.56809235
298.00000000	-77.00000000	-58.02680206
298.50000000	-77.00000000	-59.48595428
299.00000000	-77.00000000	-60.97950745
299.50000000	-77.00000000	-62.39431763
300.00000000	-77.00000000	-63.78565216
300.50000000	-77.00000000	-65.14940643
301.00000000	-77.00000000	-66.45290375
301.50000000	-77.00000000	-67.64784241
302.00000000	-77.00000000	-68.76069641
302.50000000	-77.00000000	-69.75038910
303.00000000	-77.00000000	-70.58431244
303.50000000	-77.00000000	-71.24581146
304.00000000	-77.00000000	-71.75199890
304.50000000	-77.00000000	-72.17189789
305.00000000	-77.00000000	-72.50861359
305.50000000	-77.00000000	-72.75930786
306.00000000	-77.00000000	-72.91500854
306.50000000	-77.00000000	-72.95294189
307.00000000	-77.00000000	-72.97642517
307.50000000	-77.00000000	-73.07803345
308.00000000	-77.00000000	-73.34010315
309.50000000	-77.00000000	-75.11257935
359.50000000	-77.00000000	-5.31575012
360.00000000	-77.00000000	-8.37811279
0.00000000	-77.50000000	-2.00691223
0.50000000	-77.50000000	-5.05644226
202.00000000	-77.50000000	-6.49221802
202.50000000	-77.50000000	-7.71003723
203.00000000	-77.50000000	-8.98223114
203.50000000	-77.50000000	-10.33885956
204.00000000	-77.50000000	-11.75097656
204.50000000	-77.50000000	-13.16500854
205.00000000	-77.50000000	-14.47113037
205.50000000	-77.50000000	-15.50520325
206.00000000	-77.50000000	-16.03126526
206.50000000	-77.50000000	-16.30149841
207.00000000	-77.50000000	-16.52239990
207.50000000	-77.50000000	-16.84839630
208.00000000	-77.50000000	-17.50686646
208.50000000	-77.50000000	-17.82980347
209.00000000	-77.50000000	-18.06021118
209.50000000	-77.50000000	-18.33199310
210.00000000	-77.50000000	-18.69659424
210.50000000	-77.50000000	-19.20904160
211.00000000	-77.50000000	-20.00897217
211.50000000	-77.50000000	-21.00786591
212.00000000	-77.50000000	-22.08462143
212.50000000	-77.50000000	-23.07661438
213.00000000	-77.50000000	-23.77713776
213.50000000	-77.50000000	-24.49256134
214.00000000	-77.50000000	-25.28878403
214.50000000	-77.50000000	-26.19651413
215.00000000	-77.50000000	-27.15291977
215.50000000	-77.50000000	-28.16822052
216.00000000	-77.50000000	-29.22901535
216.50000000	-77.50000000	-30.31545258
217.00000000	-77.50000000	-31.40639877
217.50000000	-77.50000000	-32.47533417
218.00000000	-77.50000000	-33.52045822
218.50000000	-77.50000000	-34.56257248
219.00000000	-77.50000000	-35.59595108
219.50000000	-77.50000000	-36.59085464
220.00000000	-77.50000000	-37.51068115
220.50000000	-77.50000000	-38.22430038
221.00000000	-77.50000000	-38.60011292
221.50000000	-77.50000000	-39.00356293
222.00000000	-77.50000000	-39.41945648
222.50000000	-77.50000000	-39.83521652
223.00000000	-77.50000000	-40.30408478
223.50000000	-77.50000000	-40.89922333
224.00000000	-77.50000000	-41.24154663
224.50000000	-77.50000000	-41.32310867
225.00000000	-77.50000000	-41.31858063
225.50000000	-77.50000000	-41.24968338
226.00000000	-77.50000000	-41.15306473
226.50000000	-77.50000000	-41.02436447
227.00000000	-77.50000000	-40.89238739
227.50000000	-77.50000000	-40.85857391
228.00000000	-77.50000000	-40.92100906
228.50000000	-77.50000000	-41.07120514
229.00000000	-77.50000000	-41.31635284
229.50000000	-77.50000000	-41.65514374
230.00000000	-77.50000000	-42.00765228
230.50000000	-77.50000000	-42.41871643
231.00000000	-77.50000000	-42.93004227
231.50000000	-77.50000000	-43.56142807
232.00000000	-77.50000000	-44.35262680
232.50000000	-77.50000000	-45.28742218
233.00000000	-77.50000000	-45.93218613
233.50000000	-77.50000000	-46.17556000
234.00000000	-77.50000000	-46.06566620
234.50000000	-77.50000000	-45.62265015
235.00000000	-77.50000000	-44.90107727
235.50000000	-77.50000000	-44.28952789
236.00000000	-77.50000000	-43.90386581
236.50000000	-77.50000000	-43.60406113
237.00000000	-77.50000000	-43.30853653
237.50000000	-77.50000000	-42.96338272
238.00000000	-77.50000000	-42.62462616
238.50000000	-77.50000000	-42.27859497
239.00000000	-77.50000000	-41.90098190
239.50000000	-77.50000000	-41.46059418
240.00000000	-77.50000000	-40.93873215
240.50000000	-77.50000000	-40.37832642
241.00000000	-77.50000000	-39.85525513
241.50000000	-77.50000000	-39.39185715
242.00000000	-77.50000000	-39.04475403
242.50000000	-77.50000000	-39.22767639
243.00000000	-77.50000000	-40.00600052
243.50000000	-77.50000000	-40.99907684
244.00000000	-77.50000000	-41.99188614
244.50000000	-77.50000000	-42.76490784
245.00000000	-77.50000000	-43.30575562
245.50000000	-77.50000000	-43.69921112
246.00000000	-77.50000000	-44.05025482
246.50000000	-77.50000000	-44.49510193
247.00000000	-77.50000000	-45.21728134
247.50000000	-77.50000000	-45.96202850
248.00000000	-77.50000000	-46.65679169
248.50000000	-77.50000000	-47.23730850
249.00000000	-77.50000000	-47.65274811
249.50000000	-77.50000000	-47.88478088
250.00000000	-77.50000000	-47.93653488
250.50000000	-77.50000000	-47.81141663
251.00000000	-77.50000000	-47.52368164
251.50000000	-77.50000000	-47.06730652
252.00000000	-77.50000000	-46.45639038
252.50000000	-77.50000000	-45.68159485
253.00000000	-77.50000000	-44.76178741
253.50000000	-77.50000000	-43.75716782
254.00000000	-77.50000000	-42.50192261
254.50000000	-77.50000000	-41.10953903
255.00000000	-77.50000000	-39.69539261
255.50000000	-77.50000000	-38.36973572
256.00000000	-77.50000000	-36.99421310
256.50000000	-77.50000000	-35.65362549
257.00000000	-77.50000000	-34.28614044
257.50000000	-77.50000000	-32.83267593
258.00000000	-77.50000000	-31.22526169
258.50000000	-77.50000000	-29.60646057
259.00000000	-77.50000000	-28.01313019
259.50000000	-77.50000000	-26.48534393
260.00000000	-77.50000000	-25.17774963
260.50000000	-77.50000000	-24.06183624
261.00000000	-77.50000000	-22.86062622
261.50000000	-77.50000000	-21.73294830
262.00000000	-77.50000000	-20.77996063
262.50000000	-77.50000000	-19.89804077
263.00000000	-77.50000000	-19.20934296
263.50000000	-77.50000000	-18.72103882
264.00000000	-77.50000000	-18.19374847
264.50000000	-77.50000000	-17.66948700
265.00000000	-77.50000000	-17.23537445
265.50000000	-77.50000000	-16.85388947
266.00000000	-77.50000000	-16.62076569
266.50000000	-77.50000000	-16.61425018
267.00000000	-77.50000000	-16.71510315
267.50000000	-77.50000000	-16.93327332
268.00000000	-77.50000000	-17.32841492
268.50000000	-77.50000000	-17.70082092
269.00000000	-77.50000000	-18.18746185
269.50000000	-77.50000000	-18.72254944
270.00000000	-77.50000000	-19.29604340
270.50000000	-77.50000000	-19.85607910
271.00000000	-77.50000000	-20.40864563
271.50000000	-77.50000000	-20.92293549
272.00000000	-77.50000000	-21.85163879
272.50000000	-77.50000000	-22.67368317
273.00000000	-77.50000000	-23.79396820
273.50000000	-77.50000000	-25.01168060
274.00000000	-77.50000000	-25.79387665
274.50000000	-77.50000000	-24.86541748
275.00000000	-77.50000000	-24.10501862
275.50000000	-77.50000000	-23.42051697
276.00000000	-77.50000000	-22.70900726
276.50000000	-77.50000000	-22.44775391
277.00000000	-77.50000000	-22.57398224
277.50000000	-77.50000000	-23.07141876
278.00000000	-77.50000000	-23.88043976
278.50000000	-77.50000000	-24.87528229
279.00000000	-77.50000000	-26.06829834
279.50000000	-77.50000000	-27.23270416
280.00000000	-77.50000000	-28.89543915
280.50000000	-77.50000000	-30.17369843
281.00000000	-77.50000000	-30.98091125
281.50000000	-77.50000000	-31.65829468
282.00000000	-77.50000000	-32.21335602
282.50000000	-77.50000000	-32.88570404
283.00000000	-77.50000000	-33.36665344
283.50000000	-77.50000000	-33.90021515
284.00000000	-77.50000000	-34.58125305
284.50000000	-77.50000000	-35.32389069
285.00000000	-77.50000000	-35.82105255
285.50000000	-77.50000000	-36.31078339
286.00000000	-77.50000000	-36.76521301
286.50000000	-77.50000000	-37.15441895
287.00000000	-77.50000000	-37.37703705
287.50000000	-77.50000000	-37.45797729
288.00000000	-77.50000000	-37.53047943
288.50000000	-77.50000000	-37.80360413
289.00000000	-77.50000000	-38.34021759
289.50000000	-77.50000000	-39.51972961
290.00000000	-77.50000000	-41.12870789
290.50000000	-77.50000000	-42.85118103
291.00000000	-77.50000000	-44.39440155
291.50000000	-77.50000000	-45.38439941
292.00000000	-77.50000000	-46.30160522
292.50000000	-77.50000000	-47.25350189
293.00000000	-77.50000000	-48.17973328
293.50000000	-77.50000000	-48.78000641
294.00000000	-77.50000000	-49.27094269
294.50000000	-77.50000000	-49.80841827
295.00000000	-77.50000000	-50.48497009
295.50000000	-77.50000000	-51.41713715
296.00000000	-77.50000000	-52.79782867
296.50000000	-77.50000000	-54.34853363
297.00000000	-77.50000000	-55.99194336
297.50000000	-77.50000000	-57.67884064
298.00000000	-77.50000000	-59.35270691
298.50000000	-77.50000000	-61.04006958
299.00000000	-77.50000000	-62.72862244
299.50000000	-77.50000000	-64.40578461
300.00000000	-77.50000000	-66.07294464
300.50000000	-77.50000000	-67.73500824
301.00000000	-77.50000000	-69.38749695
301.50000000	-77.50000000	-71.02381897
302.00000000	-77.50000000	-72.64419556
302.50000000	-77.50000000	-74.25978088
303.00000000	-77.50000000	-75.60920715
303.50000000	-77.50000000	-76.75708008
304.00000000	-77.50000000	-77.74231720
304.50000000	-77.50000000	-78.55895996
305.00000000	-77.50000000	-79.24745941
305.50000000	-77.50000000	-79.79097748
306.00000000	-77.50000000	-80.21109772
306.50000000	-77.50000000	-80.55758667
307.00000000	-77.50000000	-80.85894012
307.50000000	-77.50000000	-81.13345337
308.00000000	-77.50000000	-81.38260651
308.50000000	-77.50000000	-81.59201813
359.50000000	-77.50000000	1.49963379
