349.00000000	-84.50000000	211.32092285
349.50000000	-84.50000000	211.25137329
350.00000000	-84.50000000	211.18716431
350.50000000	-84.50000000	211.13070679
351.00000000	-84.50000000	211.09379578
351.50000000	-84.50000000	211.06962585
352.00000000	-84.50000000	211.04606628
352.50000000	-84.50000000	211.02207947
353.00000000	-84.50000000	210.99765015
353.50000000	-84.50000000	210.97290039
354.00000000	-84.50000000	210.94801331
354.50000000	-84.50000000	210.92222595
355.00000000	-84.50000000	210.90126038
355.50000000	-84.50000000	210.88815308
356.00000000	-84.50000000	210.89772034
356.50000000	-84.50000000	210.90721130
357.00000000	-84.50000000	210.89947510
357.50000000	-84.50000000	210.88420105
358.00000000	-84.50000000	210.86407471
358.50000000	-84.50000000	210.83889771
359.00000000	-84.50000000	210.80729675
359.50000000	-84.50000000	210.76728821
360.00000000	-84.50000000	210.71842957
0.00000000	-85.00000000	212.15444946
0.50000000	-85.00000000	212.13287354
1.00000000	-85.00000000	212.11265564
1.50000000	-85.00000000	212.09045410
2.00000000	-85.00000000	212.06361389
2.50000000	-85.00000000	212.02940369
3.00000000	-85.00000000	211.98469543
3.50000000	-85.00000000	211.92576599
4.00000000	-85.00000000	211.84793091
4.50000000	-85.00000000	211.74481201
5.00000000	-85.00000000	211.60112000
5.50000000	-85.00000000	211.41792297
6.00000000	-85.00000000	211.15458679
6.50000000	-85.00000000	210.83012390
7.00000000	-85.00000000	210.46611023
7.50000000	-85.00000000	210.08328247
8.00000000	-85.00000000	209.70196533
8.50000000	-85.00000000	209.34201050
9.00000000	-85.00000000	209.02308655
9.50000000	-85.00000000	208.76779175
10.00000000	-85.00000000	208.59669495
10.50000000	-85.00000000	208.53306580
11.00000000	-85.00000000	208.57864380
11.50000000	-85.00000000	208.74472046
12.00000000	-85.00000000	208.99409485
12.50000000	-85.00000000	209.29498291
13.00000000	-85.00000000	209.62091064
13.50000000	-85.00000000	209.94985962
14.00000000	-85.00000000	210.26170349
14.50000000	-85.00000000	210.53295898
15.00000000	-85.00000000	210.72923279
15.50000000	-85.00000000	210.79995728
16.00000000	-85.00000000	210.71723938
16.50000000	-85.00000000	210.50990295
17.00000000	-85.00000000	210.22819519
17.50000000	-85.00000000	209.91165161
18.00000000	-85.00000000	209.58946228
18.50000000	-85.00000000	209.23809814
19.00000000	-85.00000000	208.87594604
19.50000000	-85.00000000	208.52841187
20.00000000	-85.00000000	208.22038269
20.50000000	-85.00000000	207.97938538
21.00000000	-85.00000000	207.84127808
21.50000000	-85.00000000	207.86201477
22.00000000	-85.00000000	208.01573181
22.50000000	-85.00000000	208.25350952
23.00000000	-85.00000000	208.54830933
23.50000000	-85.00000000	208.88059998
24.00000000	-85.00000000	209.23513794
24.50000000	-85.00000000	209.60008240
25.00000000	-85.00000000	209.96646118
25.50000000	-85.00000000	210.32786560
26.00000000	-85.00000000	210.68118286
26.50000000	-85.00000000	211.00808716
27.00000000	-85.00000000	211.27951050
27.50000000	-85.00000000	211.52493286
28.00000000	-85.00000000	211.74812317
28.50000000	-85.00000000	211.95613098
29.00000000	-85.00000000	212.15132141
29.50000000	-85.00000000	212.33633423
30.00000000	-85.00000000	212.51396179
30.50000000	-85.00000000	212.68698120
31.00000000	-85.00000000	212.85820007
31.50000000	-85.00000000	213.03030396
32.00000000	-85.00000000	213.20559692
32.50000000	-85.00000000	213.38558960
33.00000000	-85.00000000	213.58798218
33.50000000	-85.00000000	213.80873108
34.00000000	-85.00000000	214.02880859
34.50000000	-85.00000000	214.24684143
35.00000000	-85.00000000	214.46209717
35.50000000	-85.00000000	214.67234802
36.00000000	-85.00000000	214.87248230
36.50000000	-85.00000000	215.04566956
37.00000000	-85.00000000	215.16348267
37.50000000	-85.00000000	215.23602295
38.00000000	-85.00000000	215.27642822
38.50000000	-85.00000000	215.30149841
39.00000000	-85.00000000	215.25523376
39.50000000	-85.00000000	215.03155518
40.00000000	-85.00000000	214.73773193
40.50000000	-85.00000000	214.38633728
41.00000000	-85.00000000	213.99682617
41.50000000	-85.00000000	213.58811951
42.00000000	-85.00000000	213.17712402
42.50000000	-85.00000000	212.77899170
43.00000000	-85.00000000	212.40805054
43.50000000	-85.00000000	212.07958984
44.00000000	-85.00000000	211.81221008
44.50000000	-85.00000000	211.61384583
45.00000000	-85.00000000	211.47181702
45.50000000	-85.00000000	211.39508057
46.00000000	-85.00000000	211.40617371
46.50000000	-85.00000000	211.62216187
47.00000000	-85.00000000	211.95707703
47.50000000	-85.00000000	212.33717346
48.00000000	-85.00000000	212.73612976
48.50000000	-85.00000000	213.14280701
49.00000000	-85.00000000	213.55284119
49.50000000	-85.00000000	213.96586609
50.00000000	-85.00000000	214.38516235
50.50000000	-85.00000000	214.81974792
51.00000000	-85.00000000	215.29428101
51.50000000	-85.00000000	215.82197571
52.00000000	-85.00000000	216.35368347
52.50000000	-85.00000000	216.87513733
53.00000000	-85.00000000	217.37026978
53.50000000	-85.00000000	217.82089233
54.00000000	-85.00000000	218.21327209
54.50000000	-85.00000000	218.53523254
55.00000000	-85.00000000	218.79667664
55.50000000	-85.00000000	219.01350403
56.00000000	-85.00000000	219.19508362
56.50000000	-85.00000000	219.34318542
57.00000000	-85.00000000	219.44799805
57.50000000	-85.00000000	219.47969055
58.00000000	-85.00000000	219.46961975
58.50000000	-85.00000000	219.43972778
59.00000000	-85.00000000	219.39057922
59.50000000	-85.00000000	219.32679749
60.00000000	-85.00000000	219.25462341
60.50000000	-85.00000000	219.18099976
61.00000000	-85.00000000	219.11312866
61.50000000	-85.00000000	219.05818176
62.00000000	-85.00000000	219.02310181
62.50000000	-85.00000000	219.01403809
63.00000000	-85.00000000	219.04002380
63.50000000	-85.00000000	219.12243652
64.00000000	-85.00000000	219.25912476
64.50000000	-85.00000000	219.43586731
65.00000000	-85.00000000	219.64271545
65.50000000	-85.00000000	219.87210083
66.00000000	-85.00000000	220.11614990
66.50000000	-85.00000000	220.36668396
67.00000000	-85.00000000	220.61528015
67.50000000	-85.00000000	220.85310364
68.00000000	-85.00000000	221.07061768
68.50000000	-85.00000000	221.25692749
69.00000000	-85.00000000	221.39839172
69.50000000	-85.00000000	221.52104187
70.00000000	-85.00000000	221.64781189
70.50000000	-85.00000000	221.77700806
71.00000000	-85.00000000	221.90673828
71.50000000	-85.00000000	222.03436279
72.00000000	-85.00000000	222.15550232
72.50000000	-85.00000000	222.24963379
73.00000000	-85.00000000	222.27067566
73.50000000	-85.00000000	222.24664307
74.00000000	-85.00000000	222.21496582
74.50000000	-85.00000000	222.22579956
75.00000000	-85.00000000	222.20338440
75.50000000	-85.00000000	222.12719727
76.00000000	-85.00000000	222.01446533
76.50000000	-85.00000000	221.87632751
77.00000000	-85.00000000	221.72198486
77.50000000	-85.00000000	221.55999756
78.00000000	-85.00000000	221.39884949
78.50000000	-85.00000000	221.24737549
79.00000000	-85.00000000	221.11567688
79.50000000	-85.00000000	221.02119446
80.00000000	-85.00000000	220.92764282
80.50000000	-85.00000000	220.82933044
81.00000000	-85.00000000	220.73060608
81.50000000	-85.00000000	220.63264465
82.00000000	-85.00000000	220.53694153
82.50000000	-85.00000000	220.44450378
83.00000000	-85.00000000	220.35610962
83.50000000	-85.00000000	220.27243042
84.00000000	-85.00000000	220.19418335
84.50000000	-85.00000000	220.12252808
85.00000000	-85.00000000	220.05876160
85.50000000	-85.00000000	220.00573730
86.00000000	-85.00000000	219.95523071
86.50000000	-85.00000000	219.89950562
87.00000000	-85.00000000	219.84106445
87.50000000	-85.00000000	219.78005981
88.00000000	-85.00000000	219.71629333
88.50000000	-85.00000000	219.64947510
89.00000000	-85.00000000	219.57937622
89.50000000	-85.00000000	219.50611877
90.00000000	-85.00000000	219.43139648
90.50000000	-85.00000000	219.35652161
91.00000000	-85.00000000	219.27630615
91.50000000	-85.00000000	219.19026184
92.00000000	-85.00000000	219.09866333
92.50000000	-85.00000000	219.00190735
93.00000000	-85.00000000	218.90045166
93.50000000	-85.00000000	218.79464722
94.00000000	-85.00000000	218.68443298
94.50000000	-85.00000000	218.56739807
95.00000000	-85.00000000	218.44322205
95.50000000	-85.00000000	218.33435059
96.00000000	-85.00000000	218.23332214
96.50000000	-85.00000000	218.13740540
97.00000000	-85.00000000	218.04447937
97.50000000	-85.00000000	217.95263672
98.00000000	-85.00000000	217.86006165
98.50000000	-85.00000000	217.76509094
99.00000000	-85.00000000	217.66618347
99.50000000	-85.00000000	217.56101990
100.00000000	-85.00000000	217.44715881
100.50000000	-85.00000000	217.31951904
101.00000000	-85.00000000	217.18928528
101.50000000	-85.00000000	217.06958008
102.00000000	-85.00000000	216.95394897
102.50000000	-85.00000000	216.83947754
103.00000000	-85.00000000	216.72332764
103.50000000	-85.00000000	216.60253906
104.00000000	-85.00000000	216.47378540
104.50000000	-85.00000000	216.33317566
105.00000000	-85.00000000	216.17578125
105.50000000	-85.00000000	215.99426270
106.00000000	-85.00000000	215.78016663
106.50000000	-85.00000000	215.55189514
107.00000000	-85.00000000	215.31642151
107.50000000	-85.00000000	215.07676697
108.00000000	-85.00000000	214.83250427
108.50000000	-85.00000000	214.56851196
109.00000000	-85.00000000	214.28916931
109.50000000	-85.00000000	214.00048828
110.00000000	-85.00000000	213.70782471
110.50000000	-85.00000000	213.41748047
111.00000000	-85.00000000	213.13934326
111.50000000	-85.00000000	212.86540222
112.00000000	-85.00000000	212.58000183
112.50000000	-85.00000000	212.29626465
113.00000000	-85.00000000	212.01570129
113.50000000	-85.00000000	211.73736572
114.00000000	-85.00000000	211.46022034
114.50000000	-85.00000000	211.18313599
115.00000000	-85.00000000	210.90437317
115.50000000	-85.00000000	210.62001038
116.00000000	-85.00000000	210.31996155
116.50000000	-85.00000000	209.98402405
117.00000000	-85.00000000	209.57048035
117.50000000	-85.00000000	209.12802124
118.00000000	-85.00000000	208.64381409
118.50000000	-85.00000000	208.13655090
119.00000000	-85.00000000	207.61860657
119.50000000	-85.00000000	207.09533691
120.00000000	-85.00000000	206.56921387
120.50000000	-85.00000000	206.04156494
121.00000000	-85.00000000	205.51371765
121.50000000	-85.00000000	204.98805237
122.00000000	-85.00000000	204.46992493
122.50000000	-85.00000000	203.97286987
123.00000000	-85.00000000	203.51452637
123.50000000	-85.00000000	203.07267761
124.00000000	-85.00000000	202.63349915
124.50000000	-85.00000000	202.18884277
125.00000000	-85.00000000	201.73229980
125.50000000	-85.00000000	201.25990295
126.00000000	-85.00000000	200.77325439
126.50000000	-85.00000000	200.27386475
127.00000000	-85.00000000	199.75027466
127.50000000	-85.00000000	199.19706726
128.00000000	-85.00000000	198.60656738
128.50000000	-85.00000000	197.96804810
129.00000000	-85.00000000	197.26754761
129.50000000	-85.00000000	196.52323914
130.00000000	-85.00000000	195.75744629
130.50000000	-85.00000000	194.97361755
131.00000000	-85.00000000	194.17527771
131.50000000	-85.00000000	193.36549377
132.00000000	-85.00000000	192.54690552
132.50000000	-85.00000000	191.72178650
133.00000000	-85.00000000	190.89215088
133.50000000	-85.00000000	190.05990601
134.00000000	-85.00000000	189.22712708
134.50000000	-85.00000000	188.39135742
135.00000000	-85.00000000	187.54412842
135.50000000	-85.00000000	186.68415833
136.00000000	-85.00000000	185.81068420
136.50000000	-85.00000000	184.91993713
137.00000000	-85.00000000	184.01116943
137.50000000	-85.00000000	183.08702087
138.00000000	-85.00000000	182.15020752
138.50000000	-85.00000000	181.20323181
139.00000000	-85.00000000	180.24841309
139.50000000	-85.00000000	179.28784180
140.00000000	-85.00000000	178.32334900
140.50000000	-85.00000000	177.35627747
141.00000000	-85.00000000	176.38700867
141.50000000	-85.00000000	175.41583252
142.00000000	-85.00000000	174.44219971
142.50000000	-85.00000000	173.46556091
143.00000000	-85.00000000	172.48707581
143.50000000	-85.00000000	171.50875854
144.00000000	-85.00000000	170.53329468
144.50000000	-85.00000000	169.55455017
145.00000000	-85.00000000	168.57141113
145.50000000	-85.00000000	167.58731079
146.00000000	-85.00000000	166.60423279
146.50000000	-85.00000000	165.62359619
147.00000000	-85.00000000	164.64671326
147.50000000	-85.00000000	163.67680359
148.00000000	-85.00000000	162.74670410
148.50000000	-85.00000000	161.85371399
149.00000000	-85.00000000	160.98451233
149.50000000	-85.00000000	160.12989807
150.00000000	-85.00000000	159.28240967
150.50000000	-85.00000000	158.43524170
151.00000000	-85.00000000	157.58192444
151.50000000	-85.00000000	156.71595764
152.00000000	-85.00000000	155.83070374
152.50000000	-85.00000000	154.91888428
153.00000000	-85.00000000	153.96725464
153.50000000	-85.00000000	152.99781799
154.00000000	-85.00000000	152.00779724
154.50000000	-85.00000000	150.99113464
155.00000000	-85.00000000	149.95722961
155.50000000	-85.00000000	148.90650940
156.00000000	-85.00000000	147.83938599
156.50000000	-85.00000000	146.75630188
157.00000000	-85.00000000	145.65771484
157.50000000	-85.00000000	144.54421997
158.00000000	-85.00000000	143.41645813
158.50000000	-85.00000000	142.27537537
159.00000000	-85.00000000	141.12089539
159.50000000	-85.00000000	139.83840942
160.00000000	-85.00000000	138.41757202
160.50000000	-85.00000000	136.91674805
161.00000000	-85.00000000	135.37768555
161.50000000	-85.00000000	133.83740234
162.00000000	-85.00000000	132.33529663
162.50000000	-85.00000000	130.90119934
163.00000000	-85.00000000	129.48406982
163.50000000	-85.00000000	128.11358643
164.00000000	-85.00000000	126.83453369
164.50000000	-85.00000000	125.70140839
165.00000000	-85.00000000	124.69668579
165.50000000	-85.00000000	123.76512909
166.00000000	-85.00000000	122.88801575
166.50000000	-85.00000000	122.05739594
167.00000000	-85.00000000	121.26940918
167.50000000	-85.00000000	120.52194977
168.00000000	-85.00000000	119.81378937
168.50000000	-85.00000000	119.14410400
169.00000000	-85.00000000	118.51203918
169.50000000	-85.00000000	117.91417694
170.00000000	-85.00000000	117.41617584
170.50000000	-85.00000000	117.13022614
171.00000000	-85.00000000	116.93746185
171.50000000	-85.00000000	116.79340363
172.00000000	-85.00000000	116.68208313
172.50000000	-85.00000000	116.59728241
173.00000000	-85.00000000	116.53414917
173.50000000	-85.00000000	116.48403168
174.00000000	-85.00000000	116.42246246
174.50000000	-85.00000000	116.27076721
175.00000000	-85.00000000	115.78010559
175.50000000	-85.00000000	114.91792297
176.00000000	-85.00000000	113.99745941
176.50000000	-85.00000000	112.95783997
177.00000000	-85.00000000	111.83193970
177.50000000	-85.00000000	110.65286255
178.00000000	-85.00000000	109.45381927
178.50000000	-85.00000000	108.26810455
179.00000000	-85.00000000	107.12905121
179.50000000	-85.00000000	106.07010651
180.00000000	-85.00000000	105.12524414
180.50000000	-85.00000000	104.28125763
181.00000000	-85.00000000	103.49713135
181.50000000	-85.00000000	102.76542664
182.00000000	-85.00000000	102.07820892
182.50000000	-85.00000000	101.42744446
183.00000000	-85.00000000	100.80509949
183.50000000	-85.00000000	100.20336151
184.00000000	-85.00000000	99.61526489
184.50000000	-85.00000000	99.03871155
185.00000000	-85.00000000	98.46561432
185.50000000	-85.00000000	97.86004639
186.00000000	-85.00000000	97.22273254
186.50000000	-85.00000000	96.56315613
187.00000000	-85.00000000	95.88806915
187.50000000	-85.00000000	95.20303345
188.00000000	-85.00000000	94.51305389
188.50000000	-85.00000000	93.82270813
189.00000000	-85.00000000	93.13682556
189.50000000	-85.00000000	92.46842194
190.00000000	-85.00000000	91.82421112
190.50000000	-85.00000000	91.17443848
191.00000000	-85.00000000	90.42606354
191.50000000	-85.00000000	89.62036133
192.00000000	-85.00000000	88.76093292
192.50000000	-85.00000000	87.87210846
193.00000000	-85.00000000	86.97825623
193.50000000	-85.00000000	86.10256958
194.00000000	-85.00000000	85.26605225
194.50000000	-85.00000000	84.48876190
195.00000000	-85.00000000	83.79562378
195.50000000	-85.00000000	83.22277069
196.00000000	-85.00000000	82.83126831
196.50000000	-85.00000000	82.64042664
197.00000000	-85.00000000	82.52268982
197.50000000	-85.00000000	82.42620850
198.00000000	-85.00000000	82.34994507
198.50000000	-85.00000000	82.39447784
199.00000000	-85.00000000	82.48882294
199.50000000	-85.00000000	82.60070038
200.00000000	-85.00000000	82.71711731
200.50000000	-85.00000000	82.82376099
201.00000000	-85.00000000	82.89148712
201.50000000	-85.00000000	82.94180298
202.00000000	-85.00000000	83.04438782
202.50000000	-85.00000000	83.16894531
203.00000000	-85.00000000	83.30162811
203.50000000	-85.00000000	83.43681335
204.00000000	-85.00000000	83.57216644
204.50000000	-85.00000000	83.70655823
205.00000000	-85.00000000	83.83931732
205.50000000	-85.00000000	83.96995544
206.00000000	-85.00000000	84.09829712
206.50000000	-85.00000000	84.22012329
207.00000000	-85.00000000	84.33644867
207.50000000	-85.00000000	84.45375061
208.00000000	-85.00000000	84.56983948
208.50000000	-85.00000000	84.68892670
209.00000000	-85.00000000	84.81218719
209.50000000	-85.00000000	84.94098663
210.00000000	-85.00000000	85.07673645
210.50000000	-85.00000000	85.22077179
211.00000000	-85.00000000	85.37421417
211.50000000	-85.00000000	85.53747559
212.00000000	-85.00000000	85.70896149
212.50000000	-85.00000000	85.88120270
213.00000000	-85.00000000	86.05360413
213.50000000	-85.00000000	86.25013733
214.00000000	-85.00000000	86.45938110
214.50000000	-85.00000000	86.67549896
215.00000000	-85.00000000	86.89628601
215.50000000	-85.00000000	87.12175751
216.00000000	-85.00000000	87.35379028
216.50000000	-85.00000000	87.57820892
217.00000000	-85.00000000	87.77903748
217.50000000	-85.00000000	87.96643829
218.00000000	-85.00000000	88.14504242
218.50000000	-85.00000000	88.31312561
219.00000000	-85.00000000	88.45657349
219.50000000	-85.00000000	88.61321259
220.00000000	-85.00000000	88.81221771
220.50000000	-85.00000000	89.03723145
221.00000000	-85.00000000	89.27760315
221.50000000	-85.00000000	89.52668762
222.00000000	-85.00000000	89.78035736
222.50000000	-85.00000000	90.03638458
223.00000000	-85.00000000	90.29478455
223.50000000	-85.00000000	90.55961609
224.00000000	-85.00000000	90.84449005
224.50000000	-85.00000000	91.12616730
225.00000000	-85.00000000	91.36005402
225.50000000	-85.00000000	91.55657196
226.00000000	-85.00000000	91.68968964
226.50000000	-85.00000000	91.76136017
227.00000000	-85.00000000	91.80209351
227.50000000	-85.00000000	91.82469177
228.00000000	-85.00000000	91.83769989
228.50000000	-85.00000000	91.84718323
229.00000000	-85.00000000	91.85827637
229.50000000	-85.00000000	91.87670898
230.00000000	-85.00000000	91.91093445
230.50000000	-85.00000000	91.97708893
231.00000000	-85.00000000	92.11512756
231.50000000	-85.00000000	92.31877136
232.00000000	-85.00000000	92.50862122
232.50000000	-85.00000000	92.69324493
233.00000000	-85.00000000	92.87842560
233.50000000	-85.00000000	93.06777954
234.00000000	-85.00000000	93.26322937
234.50000000	-85.00000000	93.51674652
235.00000000	-85.00000000	93.83201599
235.50000000	-85.00000000	94.18579102
236.00000000	-85.00000000	94.56837463
236.50000000	-85.00000000	94.97983551
237.00000000	-85.00000000	95.43146515
237.50000000	-85.00000000	95.95101929
238.00000000	-85.00000000	96.54005432
238.50000000	-85.00000000	97.20197296
239.00000000	-85.00000000	97.92198944
239.50000000	-85.00000000	98.67980957
240.00000000	-85.00000000	99.45832062
240.50000000	-85.00000000	100.24248505
241.00000000	-85.00000000	101.01705170
241.50000000	-85.00000000	101.76525879
242.00000000	-85.00000000	102.46898651
242.50000000	-85.00000000	103.10961151
243.00000000	-85.00000000	103.68236542
243.50000000	-85.00000000	104.14289856
244.00000000	-85.00000000	104.53400421
244.50000000	-85.00000000	104.92285919
245.00000000	-85.00000000	105.31197357
245.50000000	-85.00000000	105.70311737
246.00000000	-85.00000000	106.09780884
246.50000000	-85.00000000	106.49678040
247.00000000	-85.00000000	106.89974213
247.50000000	-85.00000000	107.30506134
248.00000000	-85.00000000	107.70889282
248.50000000	-85.00000000	108.10268402
249.00000000	-85.00000000	108.46660614
249.50000000	-85.00000000	108.78404236
250.00000000	-85.00000000	109.06150055
250.50000000	-85.00000000	109.30545044
251.00000000	-85.00000000	109.52146149
251.50000000	-85.00000000	109.71369171
252.00000000	-85.00000000	109.88484955
252.50000000	-85.00000000	110.04132843
253.00000000	-85.00000000	110.18704224
253.50000000	-85.00000000	110.34087372
254.00000000	-85.00000000	110.50711060
254.50000000	-85.00000000	110.68474579
255.00000000	-85.00000000	110.79019928
255.50000000	-85.00000000	110.79685211
256.00000000	-85.00000000	110.75162506
256.50000000	-85.00000000	110.69011688
257.00000000	-85.00000000	110.63391113
257.50000000	-85.00000000	110.59746552
258.00000000	-85.00000000	110.59534454
258.50000000	-85.00000000	110.64674377
259.00000000	-85.00000000	110.77632904
259.50000000	-85.00000000	111.01620483
260.00000000	-85.00000000	111.38874817
260.50000000	-85.00000000	111.89873505
261.00000000	-85.00000000	112.49655151
261.50000000	-85.00000000	113.14840698
262.00000000	-85.00000000	113.83211517
262.50000000	-85.00000000	114.53741455
263.00000000	-85.00000000	115.25849152
263.50000000	-85.00000000	115.99186707
264.00000000	-85.00000000	116.73491669
264.50000000	-85.00000000	117.48360443
265.00000000	-85.00000000	118.21201324
265.50000000	-85.00000000	118.87714386
266.00000000	-85.00000000	119.74631500
266.50000000	-85.00000000	120.73171234
267.00000000	-85.00000000	121.77284241
267.50000000	-85.00000000	122.82775116
268.00000000	-85.00000000	123.85772705
268.50000000	-85.00000000	124.82479858
269.00000000	-85.00000000	125.69103241
269.50000000	-85.00000000	126.41814423
270.00000000	-85.00000000	126.96618652
270.50000000	-85.00000000	127.26647949
271.00000000	-85.00000000	127.33403778
271.50000000	-85.00000000	127.23133850
272.00000000	-85.00000000	127.01531219
272.50000000	-85.00000000	126.74177551
273.00000000	-85.00000000	126.46637726
273.50000000	-85.00000000	126.24550629
274.00000000	-85.00000000	126.13926697
274.50000000	-85.00000000	126.22922516
275.00000000	-85.00000000	126.69927979
275.50000000	-85.00000000	127.11236572
276.00000000	-85.00000000	127.57133484
276.50000000	-85.00000000	128.10816956
277.00000000	-85.00000000	128.71807861
277.50000000	-85.00000000	129.39683533
278.00000000	-85.00000000	130.14105225
278.50000000	-85.00000000	130.94783020
279.00000000	-85.00000000	131.81350708
279.50000000	-85.00000000	132.72370911
280.00000000	-85.00000000	133.66925049
280.50000000	-85.00000000	134.64855957
281.00000000	-85.00000000	135.69615173
281.50000000	-85.00000000	136.81835938
282.00000000	-85.00000000	138.00088501
282.50000000	-85.00000000	139.23348999
283.00000000	-85.00000000	140.50857544
283.50000000	-85.00000000	141.82022095
284.00000000	-85.00000000	143.16363525
284.50000000	-85.00000000	144.53450012
285.00000000	-85.00000000	145.92813110
285.50000000	-85.00000000	147.33837891
286.00000000	-85.00000000	148.76731873
286.50000000	-85.00000000	150.24313354
287.00000000	-85.00000000	151.76751709
287.50000000	-85.00000000	153.33659363
288.00000000	-85.00000000	154.94528198
288.50000000	-85.00000000	156.56428528
289.00000000	-85.00000000	158.18585205
289.50000000	-85.00000000	159.80722046
290.00000000	-85.00000000	161.42509460
290.50000000	-85.00000000	163.03820801
291.00000000	-85.00000000	164.65081787
291.50000000	-85.00000000	166.33401489
292.00000000	-85.00000000	168.13433838
292.50000000	-85.00000000	169.99479675
293.00000000	-85.00000000	171.87449646
293.50000000	-85.00000000	173.73970032
294.00000000	-85.00000000	175.56018066
294.50000000	-85.00000000	177.30772400
295.00000000	-85.00000000	178.95542908
295.50000000	-85.00000000	180.47747803
296.00000000	-85.00000000	181.84936523
296.50000000	-85.00000000	183.03799438
297.00000000	-85.00000000	184.05999756
297.50000000	-85.00000000	184.98448181
298.00000000	-85.00000000	185.76780701
298.50000000	-85.00000000	186.43765259
299.00000000	-85.00000000	187.01982117
299.50000000	-85.00000000	187.53826904
300.00000000	-85.00000000	188.01600647
300.50000000	-85.00000000	188.47540283
301.00000000	-85.00000000	188.93989563
301.50000000	-85.00000000	189.43858337
302.00000000	-85.00000000	190.01466370
302.50000000	-85.00000000	190.73599243
303.00000000	-85.00000000	191.60314941
303.50000000	-85.00000000	192.45358276
304.00000000	-85.00000000	193.27876282
304.50000000	-85.00000000	194.07772827
305.00000000	-85.00000000	194.84785461
305.50000000	-85.00000000	195.58287048
306.00000000	-85.00000000	196.27027893
306.50000000	-85.00000000	196.92237854
307.00000000	-85.00000000	197.57679749
307.50000000	-85.00000000	198.23181152
308.00000000	-85.00000000	198.88896179
308.50000000	-85.00000000	199.55430603
309.00000000	-85.00000000	200.24209595
309.50000000	-85.00000000	200.94476318
310.00000000	-85.00000000	201.64495850
310.50000000	-85.00000000	202.34118652
311.00000000	-85.00000000	203.03137207
311.50000000	-85.00000000	203.71304321
312.00000000	-85.00000000	204.38314819
312.50000000	-85.00000000	205.03802490
313.00000000	-85.00000000	205.67303467
313.50000000	-85.00000000	206.28190613
314.00000000	-85.00000000	206.85499573
314.50000000	-85.00000000	207.37847900
315.00000000	-85.00000000	207.85743713
315.50000000	-85.00000000	208.30168152
316.00000000	-85.00000000	208.71920776
316.50000000	-85.00000000	209.13655090
317.00000000	-85.00000000	209.55210876
317.50000000	-85.00000000	209.95677185
318.00000000	-85.00000000	210.34724426
318.50000000	-85.00000000	210.72251892
319.00000000	-85.00000000	211.08267212
319.50000000	-85.00000000	211.42857361
320.00000000	-85.00000000	211.76208496
320.50000000	-85.00000000	212.08683777
321.00000000	-85.00000000	212.41041565
321.50000000	-85.00000000	212.72396851
322.00000000	-85.00000000	213.00851440
322.50000000	-85.00000000	213.27000427
323.00000000	-85.00000000	213.50965881
323.50000000	-85.00000000	213.72679138
324.00000000	-85.00000000	213.92095947
324.50000000	-85.00000000	214.10552979
325.00000000	-85.00000000	214.28150940
325.50000000	-85.00000000	214.44302368
326.00000000	-85.00000000	214.58779907
326.50000000	-85.00000000	214.71601868
327.00000000	-85.00000000	214.82800293
327.50000000	-85.00000000	214.91848755
328.00000000	-85.00000000	214.96182251
328.50000000	-85.00000000	214.96347046
329.00000000	-85.00000000	214.93464661
329.50000000	-85.00000000	214.88226318
330.00000000	-85.00000000	214.81140137
330.50000000	-85.00000000	214.72630310
331.00000000	-85.00000000	214.63076782
331.50000000	-85.00000000	214.52844238
332.00000000	-85.00000000	214.42297363
332.50000000	-85.00000000	214.31831360
333.00000000	-85.00000000	214.21810913
333.50000000	-85.00000000	214.11593628
334.00000000	-85.00000000	214.01153564
334.50000000	-85.00000000	213.90245056
335.00000000	-85.00000000	213.78666687
335.50000000	-85.00000000	213.66732788
336.00000000	-85.00000000	213.54685974
336.50000000	-85.00000000	213.42735291
337.00000000	-85.00000000	213.31062317
337.50000000	-85.00000000	213.19802856
338.00000000	-85.00000000	213.09042358
338.50000000	-85.00000000	212.98760986
339.00000000	-85.00000000	212.88742065
339.50000000	-85.00000000	212.80532837
340.00000000	-85.00000000	212.73689270
340.50000000	-85.00000000	212.66975403
341.00000000	-85.00000000	212.59922791
341.50000000	-85.00000000	212.52352905
342.00000000	-85.00000000	212.43991089
342.50000000	-85.00000000	212.35031128
343.00000000	-85.00000000	212.29388428
343.50000000	-85.00000000	212.25938416
344.00000000	-85.00000000	212.22682190
344.50000000	-85.00000000	212.16687012
345.00000000	-85.00000000	212.10453796
345.50000000	-85.00000000	212.05067444
346.00000000	-85.00000000	212.00123596
346.50000000	-85.00000000	211.95495605
347.00000000	-85.00000000	211.91156006
347.50000000	-85.00000000	211.87112427
348.00000000	-85.00000000	211.83381653
348.50000000	-85.00000000	211.79972839
349.00000000	-85.00000000	211.76847839
349.50000000	-85.00000000	211.73745728
350.00000000	-85.00000000	211.72293091
350.50000000	-85.00000000	211.72062683
351.00000000	-85.00000000	211.72396851
351.50000000	-85.00000000	211.73039246
352.00000000	-85.00000000	211.73858643
352.50000000	-85.00000000	211.74812317
353.00000000	-85.00000000	211.75880432
353.50000000	-85.00000000	211.77053833
354.00000000	-85.00000000	211.78315735
354.50000000	-85.00000000	211.79629517
355.00000000	-85.00000000	211.80780029
355.50000000	-85.00000000	211.81791687
356.00000000	-85.00000000	211.84680176
356.50000000	-85.00000000	211.88955688
357.00000000	-85.00000000	211.94078064
357.50000000	-85.00000000	211.99584961
358.00000000	-85.00000000	212.05017090
358.50000000	-85.00000000	212.09899902
359.00000000	-85.00000000	212.13722229
359.50000000	-85.00000000	212.15878296
360.00000000	-85.00000000	212.15444946
0.00000000	-85.50000000	213.43492126
0.50000000	-85.50000000	213.38511658
1.00000000	-85.50000000	213.33303833
1.50000000	-85.50000000	213.27761841
2.00000000	-85.50000000	213.21778870
2.50000000	-85.50000000	213.15246582
3.00000000	-85.50000000	213.08053589
3.50000000	-85.50000000	213.00094604
4.00000000	-85.50000000	212.91261292
4.50000000	-85.50000000	212.81446838
5.00000000	-85.50000000	212.70545959
5.50000000	-85.50000000	212.58444214
6.00000000	-85.50000000	212.45675659
6.50000000	-85.50000000	212.29322815
7.00000000	-85.50000000	212.09645081
7.50000000	-85.50000000	211.87870789
8.00000000	-85.50000000	211.65039062
8.50000000	-85.50000000	211.42150879
9.00000000	-85.50000000	211.20184326
9.50000000	-85.50000000	211.00090027
10.00000000	-85.50000000	210.82792664
10.50000000	-85.50000000	210.69198608
11.00000000	-85.50000000	210.60202026
11.50000000	-85.50000000	210.56735229
12.00000000	-85.50000000	210.51309204
12.50000000	-85.50000000	210.43188477
13.00000000	-85.50000000	210.40583801
13.50000000	-85.50000000	210.45845032
14.00000000	-85.50000000	210.56306458
14.50000000	-85.50000000	210.69952393
15.00000000	-85.50000000	210.85096741
15.50000000	-85.50000000	211.00076294
16.00000000	-85.50000000	211.13169861
16.50000000	-85.50000000	211.22615051
17.00000000	-85.50000000	211.26512146
17.50000000	-85.50000000	211.22283936
18.00000000	-85.50000000	211.18476868
18.50000000	-85.50000000	211.15475464
19.00000000	-85.50000000	211.12886047
19.50000000	-85.50000000	211.10658264
20.00000000	-85.50000000	211.08587646
20.50000000	-85.50000000	211.06347656
21.00000000	-85.50000000	211.03440857
21.50000000	-85.50000000	210.99023438
22.00000000	-85.50000000	210.90917969
22.50000000	-85.50000000	210.77696228
23.00000000	-85.50000000	210.60438538
23.50000000	-85.50000000	210.43119812
24.00000000	-85.50000000	210.56503296
24.50000000	-85.50000000	210.71502686
25.00000000	-85.50000000	210.87324524
25.50000000	-85.50000000	211.03594971
26.00000000	-85.50000000	211.19902039
26.50000000	-85.50000000	211.36575317
27.00000000	-85.50000000	211.54696655
27.50000000	-85.50000000	211.74104309
28.00000000	-85.50000000	211.94673157
28.50000000	-85.50000000	212.16334534
29.00000000	-85.50000000	212.39103699
29.50000000	-85.50000000	212.63163757
30.00000000	-85.50000000	212.89108276
30.50000000	-85.50000000	213.20849609
31.00000000	-85.50000000	213.58184814
31.50000000	-85.50000000	213.99026489
32.00000000	-85.50000000	214.41856384
32.50000000	-85.50000000	214.85409546
33.00000000	-85.50000000	215.28553772
33.50000000	-85.50000000	215.70230103
34.00000000	-85.50000000	216.09425354
34.50000000	-85.50000000	216.45155334
35.00000000	-85.50000000	216.76457214
35.50000000	-85.50000000	217.02386475
36.00000000	-85.50000000	217.22001648
36.50000000	-85.50000000	217.34338379
37.00000000	-85.50000000	217.38809204
37.50000000	-85.50000000	217.33297729
38.00000000	-85.50000000	217.17985535
38.50000000	-85.50000000	216.94183350
39.00000000	-85.50000000	216.63185120
39.50000000	-85.50000000	216.26286316
40.00000000	-85.50000000	215.84788513
40.50000000	-85.50000000	215.40002441
41.00000000	-85.50000000	214.93244934
41.50000000	-85.50000000	214.45838928
42.00000000	-85.50000000	213.99118042
42.50000000	-85.50000000	213.54428101
43.00000000	-85.50000000	213.13140869
43.50000000	-85.50000000	212.76670837
44.00000000	-85.50000000	212.46562195
44.50000000	-85.50000000	212.24412537
45.00000000	-85.50000000	212.08119202
45.50000000	-85.50000000	211.97799683
46.00000000	-85.50000000	211.98866272
46.50000000	-85.50000000	212.16543579
47.00000000	-85.50000000	212.42738342
47.50000000	-85.50000000	212.73596191
48.00000000	-85.50000000	213.07135010
48.50000000	-85.50000000	213.42213440
49.00000000	-85.50000000	213.78143311
49.50000000	-85.50000000	214.14500427
50.00000000	-85.50000000	214.51017761
50.50000000	-85.50000000	214.87518311
51.00000000	-85.50000000	215.23884583
51.50000000	-85.50000000	215.60023499
52.00000000	-85.50000000	215.95863342
52.50000000	-85.50000000	216.31341553
53.00000000	-85.50000000	216.66564941
53.50000000	-85.50000000	216.99786377
54.00000000	-85.50000000	217.29989624
54.50000000	-85.50000000	217.57794189
55.00000000	-85.50000000	217.83253479
55.50000000	-85.50000000	218.06422424
56.00000000	-85.50000000	218.27357483
56.50000000	-85.50000000	218.46104431
57.00000000	-85.50000000	218.62704468
57.50000000	-85.50000000	218.77189636
58.00000000	-85.50000000	218.89582825
58.50000000	-85.50000000	218.99896240
59.00000000	-85.50000000	219.08123779
59.50000000	-85.50000000	219.14239502
60.00000000	-85.50000000	219.18171692
60.50000000	-85.50000000	219.19522095
61.00000000	-85.50000000	219.18684387
61.50000000	-85.50000000	219.16661072
62.00000000	-85.50000000	219.14097595
62.50000000	-85.50000000	219.11473083
63.00000000	-85.50000000	219.09182739
63.50000000	-85.50000000	219.07577515
64.00000000	-85.50000000	219.06979370
64.50000000	-85.50000000	219.07629395
65.00000000	-85.50000000	219.09568787
65.50000000	-85.50000000	219.12825012
66.00000000	-85.50000000	219.17404175
66.50000000	-85.50000000	219.23153687
67.00000000	-85.50000000	219.26782227
67.50000000	-85.50000000	219.27330017
68.00000000	-85.50000000	219.26194763
68.50000000	-85.50000000	219.24511719
69.00000000	-85.50000000	219.24009705
69.50000000	-85.50000000	219.24130249
70.00000000	-85.50000000	219.24296570
70.50000000	-85.50000000	219.24478149
71.00000000	-85.50000000	219.24792480
71.50000000	-85.50000000	219.25364685
72.00000000	-85.50000000	219.26193237
72.50000000	-85.50000000	219.26856995
73.00000000	-85.50000000	219.27833557
73.50000000	-85.50000000	219.30876160
74.00000000	-85.50000000	219.35023499
74.50000000	-85.50000000	219.39692688
75.00000000	-85.50000000	219.44482422
75.50000000	-85.50000000	219.49058533
76.00000000	-85.50000000	219.53088379
76.50000000	-85.50000000	219.56166077
77.00000000	-85.50000000	219.57632446
77.50000000	-85.50000000	219.60293579
78.00000000	-85.50000000	219.65681458
78.50000000	-85.50000000	219.66702271
79.00000000	-85.50000000	219.64692688
79.50000000	-85.50000000	219.63450623
80.00000000	-85.50000000	219.62663269
80.50000000	-85.50000000	219.62181091
81.00000000	-85.50000000	219.61889648
81.50000000	-85.50000000	219.61694336
82.00000000	-85.50000000	219.61509705
82.50000000	-85.50000000	219.61230469
83.00000000	-85.50000000	219.60720825
83.50000000	-85.50000000	219.59779358
84.00000000	-85.50000000	219.58062744
84.50000000	-85.50000000	219.55160522
85.00000000	-85.50000000	219.54208374
85.50000000	-85.50000000	219.54235840
86.00000000	-85.50000000	219.54754639
86.50000000	-85.50000000	219.55441284
87.00000000	-85.50000000	219.55975342
87.50000000	-85.50000000	219.56030273
88.00000000	-85.50000000	219.55261230
88.50000000	-85.50000000	219.53292847
89.00000000	-85.50000000	219.49708557
89.50000000	-85.50000000	219.44041443
90.00000000	-85.50000000	219.35757446
90.50000000	-85.50000000	219.24409485
91.00000000	-85.50000000	219.10302734
91.50000000	-85.50000000	218.93930054
92.00000000	-85.50000000	218.75782776
92.50000000	-85.50000000	218.56347656
93.00000000	-85.50000000	218.36102295
93.50000000	-85.50000000	218.15521240
94.00000000	-85.50000000	217.95069885
94.50000000	-85.50000000	217.75213623
95.00000000	-85.50000000	217.56420898
95.50000000	-85.50000000	217.39280701
96.00000000	-85.50000000	217.24230957
96.50000000	-85.50000000	217.09796143
97.00000000	-85.50000000	216.96025085
97.50000000	-85.50000000	216.82681274
98.00000000	-85.50000000	216.69580078
98.50000000	-85.50000000	216.56542969
99.00000000	-85.50000000	216.43391418
99.50000000	-85.50000000	216.29953003
100.00000000	-85.50000000	216.16047668
100.50000000	-85.50000000	216.01490784
101.00000000	-85.50000000	215.86077881
101.50000000	-85.50000000	215.69517517
102.00000000	-85.50000000	215.42924500
102.50000000	-85.50000000	215.16784668
103.00000000	-85.50000000	214.92463684
103.50000000	-85.50000000	214.70231628
104.00000000	-85.50000000	214.48860168
104.50000000	-85.50000000	214.27679443
105.00000000	-85.50000000	214.06430054
105.50000000	-85.50000000	213.85014343
106.00000000	-85.50000000	213.63414001
106.50000000	-85.50000000	213.41673279
107.00000000	-85.50000000	213.19851685
107.50000000	-85.50000000	212.96270752
108.00000000	-85.50000000	212.70512390
108.50000000	-85.50000000	212.44554138
109.00000000	-85.50000000	212.18064880
109.50000000	-85.50000000	211.90896606
110.00000000	-85.50000000	211.62986755
110.50000000	-85.50000000	211.34307861
111.00000000	-85.50000000	211.04833984
111.50000000	-85.50000000	210.74496460
112.00000000	-85.50000000	210.43896484
112.50000000	-85.50000000	210.13922119
113.00000000	-85.50000000	209.84303284
113.50000000	-85.50000000	209.54548645
114.00000000	-85.50000000	209.24537659
114.50000000	-85.50000000	208.94515991
115.00000000	-85.50000000	208.64237976
115.50000000	-85.50000000	208.33860779
116.00000000	-85.50000000	208.03633118
116.50000000	-85.50000000	207.73612976
117.00000000	-85.50000000	207.43542480
117.50000000	-85.50000000	207.13417053
118.00000000	-85.50000000	206.83226013
118.50000000	-85.50000000	206.52928162
119.00000000	-85.50000000	206.22377014
119.50000000	-85.50000000	205.91096497
120.00000000	-85.50000000	205.57533264
120.50000000	-85.50000000	205.21305847
121.00000000	-85.50000000	204.84480286
121.50000000	-85.50000000	204.47500610
122.00000000	-85.50000000	204.10466003
122.50000000	-85.50000000	203.73376465
123.00000000	-85.50000000	203.36196899
123.50000000	-85.50000000	202.98890686
124.00000000	-85.50000000	202.61413574
124.50000000	-85.50000000	202.23696899
125.00000000	-85.50000000	201.85623169
125.50000000	-85.50000000	201.46946716
126.00000000	-85.50000000	201.07133484
126.50000000	-85.50000000	200.65075684
127.00000000	-85.50000000	200.17916870
127.50000000	-85.50000000	199.67419434
128.00000000	-85.50000000	199.14990234
128.50000000	-85.50000000	198.60778809
129.00000000	-85.50000000	198.04895020
129.50000000	-85.50000000	197.47447205
130.00000000	-85.50000000	196.88548279
130.50000000	-85.50000000	196.28312683
131.00000000	-85.50000000	195.66853333
131.50000000	-85.50000000	195.04287720
132.00000000	-85.50000000	194.40730286
132.50000000	-85.50000000	193.76290894
133.00000000	-85.50000000	193.11071777
133.50000000	-85.50000000	192.45149231
134.00000000	-85.50000000	191.78536987
134.50000000	-85.50000000	191.11132812
135.00000000	-85.50000000	190.43618774
135.50000000	-85.50000000	189.76060486
136.00000000	-85.50000000	189.08456421
136.50000000	-85.50000000	188.40573120
137.00000000	-85.50000000	187.72180176
137.50000000	-85.50000000	187.03140259
138.00000000	-85.50000000	186.33341980
138.50000000	-85.50000000	185.62687683
139.00000000	-85.50000000	184.91072083
139.50000000	-85.50000000	184.18394470
140.00000000	-85.50000000	183.44552612
140.50000000	-85.50000000	182.69441223
141.00000000	-85.50000000	181.92953491
141.50000000	-85.50000000	181.14984131
142.00000000	-85.50000000	180.35426331
142.50000000	-85.50000000	179.54170227
143.00000000	-85.50000000	178.71124268
143.50000000	-85.50000000	177.86347961
144.00000000	-85.50000000	177.00694275
144.50000000	-85.50000000	176.13777161
145.00000000	-85.50000000	175.25752258
145.50000000	-85.50000000	174.36718750
146.00000000	-85.50000000	173.46768188
146.50000000	-85.50000000	172.55998230
147.00000000	-85.50000000	171.64511108
147.50000000	-85.50000000	170.72409058
148.00000000	-85.50000000	169.79801941
148.50000000	-85.50000000	168.86819458
149.00000000	-85.50000000	167.93630981
149.50000000	-85.50000000	167.00500488
150.00000000	-85.50000000	166.07914734
150.50000000	-85.50000000	165.13912964
151.00000000	-85.50000000	164.15463257
151.50000000	-85.50000000	163.14115906
152.00000000	-85.50000000	162.10961914
152.50000000	-85.50000000	161.06704712
153.00000000	-85.50000000	160.01795959
153.50000000	-85.50000000	158.96531677
154.00000000	-85.50000000	157.91123962
154.50000000	-85.50000000	156.86531067
155.00000000	-85.50000000	155.82731628
155.50000000	-85.50000000	154.79217529
156.00000000	-85.50000000	153.75740051
156.50000000	-85.50000000	152.72407532
157.00000000	-85.50000000	151.61509705
157.50000000	-85.50000000	150.42900085
158.00000000	-85.50000000	149.22067261
158.50000000	-85.50000000	148.03143311
159.00000000	-85.50000000	146.86563110
159.50000000	-85.50000000	145.70901489
160.00000000	-85.50000000	144.56388855
160.50000000	-85.50000000	143.43342590
161.00000000	-85.50000000	142.32073975
161.50000000	-85.50000000	141.22851562
162.00000000	-85.50000000	140.15809631
162.50000000	-85.50000000	139.10803223
163.00000000	-85.50000000	138.10650635
163.50000000	-85.50000000	137.19262695
164.00000000	-85.50000000	136.34365845
164.50000000	-85.50000000	135.54342651
165.00000000	-85.50000000	134.77867126
165.50000000	-85.50000000	134.03684998
166.00000000	-85.50000000	133.30479431
166.50000000	-85.50000000	132.56666565
167.00000000	-85.50000000	131.79855347
167.50000000	-85.50000000	131.01426697
168.00000000	-85.50000000	130.29002380
168.50000000	-85.50000000	129.52919006
169.00000000	-85.50000000	128.70626831
169.50000000	-85.50000000	127.88355255
170.00000000	-85.50000000	127.06452942
170.50000000	-85.50000000	126.25007629
171.00000000	-85.50000000	125.44017792
171.50000000	-85.50000000	124.63439178
172.00000000	-85.50000000	123.83200836
172.50000000	-85.50000000	123.03210449
173.00000000	-85.50000000	122.23358917
173.50000000	-85.50000000	121.43511963
174.00000000	-85.50000000	120.63401031
174.50000000	-85.50000000	119.83261871
175.00000000	-85.50000000	118.98841095
175.50000000	-85.50000000	118.09648895
176.00000000	-85.50000000	117.17337036
176.50000000	-85.50000000	116.23332977
177.00000000	-85.50000000	115.29080963
177.50000000	-85.50000000	114.36006165
178.00000000	-85.50000000	113.45541382
178.50000000	-85.50000000	112.59139252
179.00000000	-85.50000000	111.78263092
179.50000000	-85.50000000	111.04385376
180.00000000	-85.50000000	110.38943481
180.50000000	-85.50000000	109.83614349
181.00000000	-85.50000000	109.38052368
181.50000000	-85.50000000	109.00605774
182.00000000	-85.50000000	108.69664001
182.50000000	-85.50000000	108.43626404
183.00000000	-85.50000000	108.20903015
183.50000000	-85.50000000	107.99920654
184.00000000	-85.50000000	107.79126740
184.50000000	-85.50000000	107.56995392
185.00000000	-85.50000000	107.31950378
185.50000000	-85.50000000	107.02047729
186.00000000	-85.50000000	106.66246796
186.50000000	-85.50000000	106.31101227
187.00000000	-85.50000000	105.96544647
187.50000000	-85.50000000	105.62512970
188.00000000	-85.50000000	105.28977203
188.50000000	-85.50000000	104.95896912
189.00000000	-85.50000000	104.63227081
189.50000000	-85.50000000	104.30912018
190.00000000	-85.50000000	103.98895264
190.50000000	-85.50000000	103.67147064
191.00000000	-85.50000000	103.35839081
191.50000000	-85.50000000	102.99629211
192.00000000	-85.50000000	102.06967163
192.50000000	-85.50000000	100.98192596
193.00000000	-85.50000000	99.84214020
193.50000000	-85.50000000	98.47486877
194.00000000	-85.50000000	97.04138184
194.50000000	-85.50000000	95.57151794
195.00000000	-85.50000000	94.06539154
195.50000000	-85.50000000	92.55732727
196.00000000	-85.50000000	91.11292267
196.50000000	-85.50000000	89.82614899
197.00000000	-85.50000000	88.81201172
197.50000000	-85.50000000	88.15847778
198.00000000	-85.50000000	87.69756317
198.50000000	-85.50000000	87.34487915
199.00000000	-85.50000000	87.06720734
199.50000000	-85.50000000	86.83460236
200.00000000	-85.50000000	86.62698364
200.50000000	-85.50000000	86.43088531
201.00000000	-85.50000000	86.24079132
201.50000000	-85.50000000	86.08187103
202.00000000	-85.50000000	86.02430725
202.50000000	-85.50000000	86.01874542
203.00000000	-85.50000000	86.03032684
203.50000000	-85.50000000	86.02409363
204.00000000	-85.50000000	86.03147125
204.50000000	-85.50000000	86.04869843
205.00000000	-85.50000000	86.03108978
205.50000000	-85.50000000	85.99505615
206.00000000	-85.50000000	85.97963715
206.50000000	-85.50000000	86.06568146
207.00000000	-85.50000000	86.21968079
207.50000000	-85.50000000	86.41696167
208.00000000	-85.50000000	86.64766693
208.50000000	-85.50000000	86.90763855
209.00000000	-85.50000000	87.19502258
209.50000000	-85.50000000	87.50954437
210.00000000	-85.50000000	87.85266113
210.50000000	-85.50000000	88.12667847
211.00000000	-85.50000000	88.33847809
211.50000000	-85.50000000	88.53719330
212.00000000	-85.50000000	88.74340057
212.50000000	-85.50000000	88.96493530
213.00000000	-85.50000000	89.20377350
213.50000000	-85.50000000	89.45910645
214.00000000	-85.50000000	89.72882843
214.50000000	-85.50000000	90.01013184
215.00000000	-85.50000000	90.29986572
215.50000000	-85.50000000	90.59474182
216.00000000	-85.50000000	90.89157867
216.50000000	-85.50000000	91.18679810
217.00000000	-85.50000000	91.46791077
217.50000000	-85.50000000	91.73268890
218.00000000	-85.50000000	91.97516632
218.50000000	-85.50000000	92.19687653
219.00000000	-85.50000000	92.39947510
219.50000000	-85.50000000	92.58473969
220.00000000	-85.50000000	92.75456238
220.50000000	-85.50000000	92.91098022
221.00000000	-85.50000000	93.05615997
221.50000000	-85.50000000	93.19241333
222.00000000	-85.50000000	93.32215118
222.50000000	-85.50000000	93.44790649
223.00000000	-85.50000000	93.57241058
223.50000000	-85.50000000	93.69879150
224.00000000	-85.50000000	93.83123779
224.50000000	-85.50000000	93.97918701
225.00000000	-85.50000000	94.17771912
225.50000000	-85.50000000	94.43172455
226.00000000	-85.50000000	94.72512054
226.50000000	-85.50000000	95.06078339
227.00000000	-85.50000000	95.45336151
227.50000000	-85.50000000	95.90022278
228.00000000	-85.50000000	96.39385223
228.50000000	-85.50000000	96.92501831
229.00000000	-85.50000000	97.48393250
229.50000000	-85.50000000	98.06058502
230.00000000	-85.50000000	98.64487457
230.50000000	-85.50000000	99.22655487
231.00000000	-85.50000000	99.79509735
231.50000000	-85.50000000	100.33963776
232.00000000	-85.50000000	100.84898376
232.50000000	-85.50000000	101.31176758
233.00000000	-85.50000000	101.71715546
233.50000000	-85.50000000	102.07987976
234.00000000	-85.50000000	102.48077393
234.50000000	-85.50000000	102.90210724
235.00000000	-85.50000000	103.34335327
235.50000000	-85.50000000	103.79871368
236.00000000	-85.50000000	104.26242065
236.50000000	-85.50000000	104.72869873
237.00000000	-85.50000000	105.19177246
237.50000000	-85.50000000	105.64578247
238.00000000	-85.50000000	106.08473969
238.50000000	-85.50000000	106.50234985
239.00000000	-85.50000000	106.89167023
239.50000000	-85.50000000	107.24446106
240.00000000	-85.50000000	107.54938507
240.50000000	-85.50000000	107.71448517
241.00000000	-85.50000000	107.66437531
241.50000000	-85.50000000	107.45964050
242.00000000	-85.50000000	107.14125061
242.50000000	-85.50000000	106.74076080
243.00000000	-85.50000000	106.28490448
243.50000000	-85.50000000	105.79718018
244.00000000	-85.50000000	105.29857635
244.50000000	-85.50000000	104.87011719
245.00000000	-85.50000000	104.55537415
245.50000000	-85.50000000	104.36939240
246.00000000	-85.50000000	104.34313202
246.50000000	-85.50000000	104.53836823
247.00000000	-85.50000000	104.86669922
247.50000000	-85.50000000	105.26049805
248.00000000	-85.50000000	105.76560211
248.50000000	-85.50000000	106.41240692
249.00000000	-85.50000000	107.12965393
249.50000000	-85.50000000	107.85667419
250.00000000	-85.50000000	108.59028625
250.50000000	-85.50000000	109.32365417
