358.5	-74.5	0.351107954979
359	-74.5	0.344242215157
359.5	-74.5	0.33803626895
360	-74.5	0.332722038031
0	-75	0.354023396969
0.5	-75	0.350079655647
1	-75	0.346908777952
1.5	-75	0.344716221094
2	-75	0.343693822622
2.5	-75	0.344033300877
3	-75	0.345904678106
3.5	-75	0.349446803331
4	-75	0.354760974646
4.5	-75	0.361866950989
5	-75	0.370719105005
5.5	-75	0.38112527132
6	-75	0.392788350582
6.5	-75	0.405450612307
7	-75	0.418813019991
7.5	-75	0.432722836733
8	-75	0.446995019913
8.5	-75	0.461620211601
9	-75	0.47678476572
9.5	-75	0.492737263441
10	-75	0.509714543819
10.5	-75	0.527995526791
11	-75	0.547782361507
11.5	-75	0.569132566452
12	-75	0.592198967934
12.5	-75	0.616951525211
13	-75	0.643112242222
13.5	-75	0.670004487038
14	-75	0.696322381496
14.5	-75	0.720595180988
15	-75	0.741286695004
15.5	-75	0.75687110424
16	-75	0.766044318676
16.5	-75	0.768015027046
17	-75	0.762657463551
17.5	-75	0.750577569008
18	-75	0.732916176319
18.5	-75	0.711187720299
19	-75	0.687063157558
19.5	-75	0.662105441093
20	-75	0.637610018253
20.5	-75	0.614531815052
21	-75	0.593495130539
21.5	-75	0.574948132038
22	-75	0.558909714222
22.5	-75	0.545332312584
23	-75	0.534057676792
23.5	-75	0.524952888489
24	-75	0.517781436443
24.5	-75	0.512245416641
25	-75	0.508252561092
25.5	-75	0.505530059338
26	-75	0.503901600838
26.5	-75	0.503172039986
27	-75	0.503159999847
27.5	-75	0.503689169884
28	-75	0.504604160786
28.5	-75	0.505781054497
29	-75	0.507080197334
29.5	-75	0.508408665657
30	-75	0.509693026543
30.5	-75	0.510888576508
31	-75	0.511974453926
31.5	-75	0.512950837612
32	-75	0.513836920261
32.5	-75	0.514666318893
33	-75	0.51547908783
33.5	-75	0.516318678856
34	-75	0.517209529877
34.5	-75	0.518169462681
35	-75	0.519202947617
35.5	-75	0.520301580429
36	-75	0.521448433399
36.5	-75	0.522626638412
37	-75	0.523811936378
37.5	-75	0.525009512901
38	-75	0.526227772236
38.5	-75	0.527484476566
39	-75	0.528803229332
39.5	-75	0.530203580856
40	-75	0.531688868999
40.5	-75	0.533243834972
41	-75	0.534790098667
41.5	-75	0.536207199097
42	-75	0.537315309048
42.5	-75	0.537900209427
43	-75	0.537738144398
43.5	-75	0.53661686182
44	-75	0.534368038177
44.5	-75	0.530922651291
45	-75	0.526302933693
45.5	-75	0.52063202858
46	-75	0.514138460159
46.5	-75	0.50711864233
47	-75	0.499915450811
47.5	-75	0.492877215147
48	-75	0.486323833466
48.5	-75	0.480536788702
49	-75	0.47572940588
49.5	-75	0.4720518291
50	-75	0.469579100609
50.5	-75	0.46832332015
51	-75	0.468238949776
51.5	-75	0.469226926565
52	-75	0.471149474382
52.5	-75	0.473821252584
53	-75	0.477023184299
53.5	-75	0.480520248413
54	-75	0.484071224928
54.5	-75	0.487448692322
55	-75	0.49046126008
55.5	-75	0.492946773767
56	-75	0.494790285826
56.5	-75	0.495918899775
57	-75	0.496316224337
57.5	-75	0.496009886265
58	-75	0.495072871447
58.5	-75	0.493611246347
59	-75	0.491756379604
59.5	-75	0.489650934935
60	-75	0.487449795008
60.5	-75	0.485292643309
61	-75	0.483307033777
61.5	-75	0.481600672007
62	-75	0.480257093906
62.5	-75	0.479336827993
63	-75	0.478875279427
63.5	-75	0.47889238596
64	-75	0.479391425848
64.5	-75	0.480366170406
65	-75	0.481799483299
65.5	-75	0.483675003052
66	-75	0.485971242189
66.5	-75	0.488657146692
67	-75	0.49168753624
67.5	-75	0.495002388954
68	-75	0.498522251844
68.5	-75	0.502145349979
69	-75	0.505760788918
69.5	-75	0.509248912334
70	-75	0.512500345707
70.5	-75	0.515424668789
71	-75	0.517954170704
71.5	-75	0.520050704479
72	-75	0.521709561348
72.5	-75	0.52294832468
73	-75	0.523797690868
73.5	-75	0.524290621281
74	-75	0.524453759193
74.5	-75	0.524302840233
75	-75	0.523843288422
75.5	-75	0.523082196712
76	-75	0.522038817406
76.5	-75	0.520751655102
77	-75	0.519288420677
77.5	-75	0.517753303051
78	-75	0.516277194023
78.5	-75	0.515011906624
79	-75	0.51410138607
79.5	-75	0.513676404953
80	-75	0.513830900192
80.5	-75	0.514610767365
81	-75	0.516008257866
81.5	-75	0.517962634563
82	-75	0.520365774632
82.5	-75	0.523078918457
83	-75	0.525953650475
83.5	-75	0.528841495514
84	-75	0.531608462334
84.5	-75	0.534147202969
85	-75	0.5363702178
85.5	-75	0.538217902184
86	-75	0.539653539658
86.5	-75	0.540659248829
87	-75	0.541226744652
87.5	-75	0.541357815266
88	-75	0.541063964367
88.5	-75	0.540364384651
89	-75	0.53929066658
89.5	-75	0.5378870368
90	-75	0.536212980747
90.5	-75	0.534336745739
91	-75	0.532336652279
91.5	-75	0.53029435873
92	-75	0.528284728527
92.5	-75	0.526380121708
93	-75	0.524638414383
93.5	-75	0.523104965687
94	-75	0.521810889244
94.5	-75	0.520777404308
95	-75	0.520012080669
95.5	-75	0.51951444149
96	-75	0.519276618958
96.5	-75	0.519282162189
97	-75	0.519500851631
97.5	-75	0.519888162613
98	-75	0.520387351513
98.5	-75	0.520932614803
99	-75	0.521454870701
99.5	-75	0.521887600422
100	-75	0.52217823267
100.5	-75	0.522298276424
101	-75	0.522250056267
101.5	-75	0.522067427635
102	-75	0.521811783314
102.5	-75	0.521561443806
103	-75	0.521396458149
103.5	-75	0.521381795406
104	-75	0.521555781364
104.5	-75	0.521923303604
105	-75	0.522460341454
105.5	-75	0.523106575012
106	-75	0.523789942265
106.5	-75	0.524437189102
107	-75	0.524985253811
107.5	-75	0.525389194489
108	-75	0.525623381138
108.5	-75	0.525677502155
109	-75	0.525545477867
109.5	-75	0.525221884251
110	-75	0.524689614773
110.5	-75	0.523911595345
111	-75	0.522826135159
111.5	-75	0.521371424198
112	-75	0.519474923611
112.5	-75	0.517067968845
113	-75	0.514098703861
113.5	-75	0.510541975498
114	-75	0.506410360336
114.5	-75	0.501756846905
115	-75	0.496674656868
115.5	-75	0.491290688515
116	-75	0.485757291317
116.5	-75	0.48024174571
117	-75	0.474917978048
117.5	-75	0.46995651722
118	-75	0.465511649847
118.5	-75	0.461718916893
119	-75	0.458676964045
119.5	-75	0.456449687481
120	-75	0.455062448978
120.5	-75	0.454503774643
121	-75	0.454719662666
121.5	-75	0.455623924732
122	-75	0.457107901573
122.5	-75	0.459050625563
123	-75	0.461323052645
123.5	-75	0.463809996843
124	-75	0.466413021088
124.5	-75	0.46905207634
125	-75	0.471663922071
125.5	-75	0.474200963974
126	-75	0.47662499547
126.5	-75	0.478903442621
127	-75	0.481007665396
127.5	-75	0.482917457819
128	-75	0.484618544579
128.5	-75	0.486103773117
129	-75	0.4873726964
129.5	-75	0.488430202007
130	-75	0.489284962416
130.5	-75	0.489947587252
131	-75	0.490428447723
131.5	-75	0.490737825632
132	-75	0.490882188082
132.5	-75	0.490873098373
133	-75	0.490722119808
133.5	-75	0.490443497896
134	-75	0.490051031113
134.5	-75	0.489564448595
135	-75	0.488999158144
135.5	-75	0.488370269537
136	-75	0.487688779831
136.5	-75	0.486966282129
137	-75	0.486210346222
137.5	-75	0.48543253541
138	-75	0.484643697739
138.5	-75	0.483861446381
139	-75	0.483113378286
139.5	-75	0.482432544231
140	-75	0.481861054897
140.5	-75	0.481446653605
141	-75	0.481236189604
141.5	-75	0.481274038553
142	-75	0.481594800949
142.5	-75	0.482219398022
143	-75	0.483157008886
143.5	-75	0.484411597252
144	-75	0.485976457596
144.5	-75	0.487837076187
145	-75	0.489996254444
145.5	-75	0.492417126894
146	-75	0.495096474886
146.5	-75	0.498053401709
147	-75	0.501283049583
147.5	-75	0.504763841629
148	-75	0.508464753628
148.5	-75	0.512351810932
149	-75	0.51630282402
149.5	-75	0.520184457302
150	-75	0.52383428812
150.5	-75	0.527059853077
151	-75	0.529650986195
151.5	-75	0.531379103661
152	-75	0.532023727894
152.5	-75	0.531367957592
153	-75	0.529253840446
153.5	-75	0.525726854801
154	-75	0.520984470844
154.5	-75	0.515135705471
155	-75	0.508504331112
155.5	-75	0.501435637474
156	-75	0.494553804398
156.5	-75	0.489041149616
157	-75	0.485996633768
157.5	-75	0.488678514957
158	-75	0.495128750801
158.5	-75	0.50795930624
159	-75	0.527827441692
159.5	-75	0.556735694408
160	-75	0.592710375786
160.5	-75	0.636054515839
161	-75	0.686377227306
161.5	-75	0.742920100689
162	-75	0.803838014603
162.5	-75	0.867786407471
163	-75	0.933731377125
163.5	-75	0.999183177948
223.5	-75	2.5167529583
224	-75	2.56461191177
224.5	-75	2.58217406273
225	-75	2.56893229485
225.5	-75	2.52800059319
226	-75	2.46541833878
226.5	-75	2.38721966743
227	-75	2.30281352997
227.5	-75	2.22197675705
228	-75	2.15479397774
228.5	-75	2.11045885086
229	-75	2.09659123421
229.5	-75	2.11960887909
230	-75	2.17952775955
230.5	-75	2.27670550346
231	-75	2.40789365768
231.5	-75	2.56984519958
232	-75	2.75606489182
232.5	-75	2.95889282227
233	-75	3.16920113564
233.5	-75	3.37780117989
234	-75	3.57693362236
234.5	-75	3.75904560089
235	-75	3.91820454597
235.5	-75	4.04796552658
236	-75	4.14207267761
236.5	-75	4.20193529129
237	-75	4.22591495514
237.5	-75	4.21552276611
238	-75	4.17263555527
238.5	-75	4.10115718842
239	-75	4.00249814987
239.5	-75	3.88255167007
240	-75	3.74506020546
240.5	-75	3.59283661842
241	-75	3.43532776833
241.5	-75	3.27666854858
242	-75	3.12318515778
242.5	-75	2.98098087311
243	-75	2.85512137413
243.5	-75	2.7489566803
244	-75	2.66604828835
244.5	-75	2.60757040977
245	-75	2.57594633102
245.5	-75	2.57361888885
246	-75	2.60115242004
246.5	-75	2.66214680672
247	-75	2.75544500351
247.5	-75	2.88012742996
248	-75	3.03366827965
248.5	-75	3.20874977112
249	-75	3.39862155914
249.5	-75	3.59450626373
250	-75	3.78671360016
250.5	-75	3.96593356133
252.5	-75	4.35752058029
253	-75	4.33374738693
253.5	-75	4.25276327133
254	-75	4.11641263962
254.5	-75	3.9290728569
255	-75	3.69996237755
258.5	-75	1.89870357513
259	-75	1.72322702408
259.5	-75	1.57902729511
260	-75	1.46363377571
260.5	-75	1.37488615513
261	-75	1.30863893032
261.5	-75	1.26150500774
262	-75	1.22893404961
262.5	-75	1.2063369751
263	-75	1.19033205509
263.5	-75	1.17720854282
264	-75	1.16405212879
264.5	-75	1.14840316772
265	-75	1.12890350819
265.5	-75	1.10458481312
266	-75	1.07523620129
266.5	-75	1.04130077362
267	-75	1.00406587124
267.5	-75	0.964994013309
268	-75	0.925825476646
268.5	-75	0.888169705868
269	-75	0.853617846966
269.5	-75	0.822993636131
270	-75	0.796725809574
270.5	-75	0.775027632713
271	-75	0.757661879063
271.5	-75	0.744235336781
272	-75	0.73441016674
272.5	-75	0.727657854557
273	-75	0.723290681839
273.5	-75	0.721338331699
274	-75	0.721080303192
274.5	-75	0.722197890282
275	-75	0.723670899868
275.5	-75	0.725002169609
276	-75	0.725731611252
276.5	-75	0.725274145603
277	-75	0.723256289959
277.5	-75	0.719306647778
278	-75	0.71319425106
278.5	-75	0.705213069916
279	-75	0.695300996304
279.5	-75	0.684065341949
280	-75	0.671688020229
280.5	-75	0.658490538597
281	-75	0.645469605923
281.5	-75	0.633452892303
282	-75	0.622517347336
282.5	-75	0.613317787647
283	-75	0.60603672266
283.5	-75	0.601195812225
284	-75	0.598612546921
284.5	-75	0.598848223686
285	-75	0.60194337368
285.5	-75	0.608299076557
286	-75	0.617928564548
286.5	-75	0.630427241325
287	-75	0.645488023758
287.5	-75	0.662296533585
288	-75	0.679669201374
288.5	-75	0.69669085741
289	-75	0.712041139603
289.5	-75	0.724778652191
290	-75	0.733817577362
290.5	-75	0.73887950182
291	-75	0.739184737206
291.5	-75	0.735000669956
292	-75	0.725984454155
292.5	-75	0.712008774281
293	-75	0.693508446217
293.5	-75	0.670634150505
294	-75	0.644271492958
294.5	-75	0.615540981293
295	-75	0.585253298283
295.5	-75	0.555300474167
296	-75	0.526592075825
296.5	-75	0.50048917532
297	-75	0.47770896554
297.5	-75	0.458806186914
298	-75	0.444199055433
298.5	-75	0.433802008629
299	-75	0.427327930927
335	-75	0.658728659153
335.5	-75	0.61912715435
336	-75	0.581961214542
336.5	-75	0.547829270363
337	-75	0.517402112484
337.5	-75	0.490995377302
338	-75	0.468693375587
338.5	-75	0.450666069984
339	-75	0.436616003513
339.5	-75	0.426133304834
340	-75	0.41884458065
340.5	-75	0.414232045412
341	-75	0.411699324846
341.5	-75	0.410953044891
342	-75	0.411186933517
342.5	-75	0.412149816751
343	-75	0.413496553898
343.5	-75	0.414980530739
344	-75	0.416381210089
344.5	-75	0.417673438787
345	-75	0.418841987848
345.5	-75	0.419865578413
346	-75	0.420745283365
346.5	-75	0.421484231949
347	-75	0.422073185444
347.5	-75	0.422493100166
348	-75	0.422716498375
348.5	-75	0.422714680433
349	-75	0.422451645136
349.5	-75	0.421900808811
350	-75	0.421052128077
350.5	-75	0.41990429163
351	-75	0.418465703726
351.5	-75	0.416763275862
352	-75	0.414826482534
352.5	-75	0.412672281265
353	-75	0.410315901041
353.5	-75	0.407807081938
354	-75	0.405086934566
354.5	-75	0.402170211077
355	-75	0.398995727301
355.5	-75	0.395532101393
356	-75	0.391748040915
356.5	-75	0.387644261122
357	-75	0.383207976818
357.5	-75	0.37848097086
358	-75	0.37352719903
358.5	-75	0.368450731039
359	-75	0.363397359848
359.5	-75	0.35853266716
360	-75	0.354023396969
0	-75.5	0.378524273634
0.5	-75.5	0.375000208616
1	-75.5	0.371681720018
1.5	-75.5	0.368773132563
2	-75.5	0.366434901953
2.5	-75.5	0.364889323711
3	-75.5	0.364353090525
3.5	-75.5	0.365085065365
4	-75.5	0.367332488298
4.5	-75.5	0.371343761683
5	-75.5	0.377207159996
5.5	-75.5	0.385029405355
6	-75.5	0.394880592823
6.5	-75.5	0.406848609447
7	-75.5	0.420904844999
7.5	-75.5	0.436939626932
8	-75.5	0.45474037528
8.5	-75.5	0.474023371935
9	-75.5	0.494421362877
9.5	-75.5	0.515453279018
10	-75.5	0.536583900452
10.5	-75.5	0.557312726974
11	-75.5	0.577149868011
11.5	-75.5	0.595643818378
12	-75.5	0.612759172916
12.5	-75.5	0.628573656082
13	-75.5	0.642981231213
13.5	-75.5	0.656068384647
14	-75.5	0.66792100668
14.5	-75.5	0.67851215601
15	-75.5	0.687638640404
15.5	-75.5	0.694950938225
16	-75.5	0.700021922588
16.5	-75.5	0.702441453934
17	-75.5	0.701843976974
17.5	-75.5	0.698067367077
18	-75.5	0.691193878651
18.5	-75.5	0.681522548199
19	-75.5	0.669385671616
19.5	-75.5	0.655255198479
20	-75.5	0.63972145319
20.5	-75.5	0.623568356037
21	-75.5	0.607319831848
21.5	-75.5	0.591361045837
22	-75.5	0.576027333736
22.5	-75.5	0.561716794968
23	-75.5	0.548696041107
23.5	-75.5	0.537094116211
24	-75.5	0.526978671551
24.5	-75.5	0.518344521523
25	-75.5	0.511268556118
25.5	-75.5	0.505605340004
26	-75.5	0.501251876354
26.5	-75.5	0.498115926981
27	-75.5	0.496051102877
27.5	-75.5	0.49488440156
28	-75.5	0.494465380907
28.5	-75.5	0.494650363922
29	-75.5	0.495293617249
29.5	-75.5	0.496268182993
30	-75.5	0.497462004423
30.5	-75.5	0.498793005943
31	-75.5	0.500192523003
31.5	-75.5	0.501610457897
32	-75.5	0.503022551537
32.5	-75.5	0.504403471947
33	-75.5	0.505745530128
33.5	-75.5	0.507045209408
34	-75.5	0.508303046227
34.5	-75.5	0.509507238865
35	-75.5	0.510655879974
35.5	-75.5	0.511744201183
36	-75.5	0.512772381306
36.5	-75.5	0.513762235641
37	-75.5	0.514734685421
37.5	-75.5	0.515738606453
38	-75.5	0.516848862171
38.5	-75.5	0.518128335476
39	-75.5	0.519683539867
39.5	-75.5	0.521565079689
40	-75.5	0.523855686188
40.5	-75.5	0.526598453522
41	-75.5	0.529780745506
41.5	-75.5	0.533322274685
42	-75.5	0.537054896355
42.5	-75.5	0.540731966496
43	-75.5	0.544042944908
43.5	-75.5	0.546641647816
44	-75.5	0.548206448555
44.5	-75.5	0.548456966877
45	-75.5	0.54721480608
45.5	-75.5	0.544424295425
46	-75.5	0.540166795254
46.5	-75.5	0.534650981426
47	-75.5	0.528192877769
47.5	-75.5	0.521141946316
48	-75.5	0.513933122158
48.5	-75.5	0.506933927536
49	-75.5	0.500476300716
49.5	-75.5	0.494828820229
50	-75.5	0.490172177553
50.5	-75.5	0.486623972654
51	-75.5	0.484230101109
51.5	-75.5	0.482969939709
52	-75.5	0.482777357101
52.5	-75.5	0.483527779579
53	-75.5	0.48507681489
53.5	-75.5	0.487249940634
54	-75.5	0.489866524935
54.5	-75.5	0.492748886347
55	-75.5	0.495737314224
55.5	-75.5	0.498696804047
56	-75.5	0.501526296139
56.5	-75.5	0.504149675369
57	-75.5	0.506519734859
57.5	-75.5	0.508615732193
58	-75.5	0.510442256927
58.5	-75.5	0.51201659441
59	-75.5	0.513370394707
59.5	-75.5	0.514542937279
60	-75.5	0.515576541424
60.5	-75.5	0.516511499882
61	-75.5	0.517391324043
61.5	-75.5	0.518251657486
62	-75.5	0.519122540951
62.5	-75.5	0.520027637482
63	-75.5	0.520991623402
63.5	-75.5	0.522026002407
64	-75.5	0.523144900799
64.5	-75.5	0.52434939146
65	-75.5	0.525645196438
65.5	-75.5	0.527030587196
66	-75.5	0.528494119644
66.5	-75.5	0.530012249947
67	-75.5	0.531546890736
67.5	-75.5	0.533040821552
68	-75.5	0.534429848194
68.5	-75.5	0.535637378693
69	-75.5	0.53658592701
69.5	-75.5	0.537206172943
70	-75.5	0.537449002266
70.5	-75.5	0.537290155888
71	-75.5	0.536736547947
71.5	-75.5	0.535819172859
72	-75.5	0.534590244293
72.5	-75.5	0.533115446568
73	-75.5	0.531462550163
73.5	-75.5	0.529694914818
74	-75.5	0.527863502502
74.5	-75.5	0.526007771492
75	-75.5	0.52415651083
75.5	-75.5	0.522332429886
76	-75.5	0.520563960075
76.5	-75.5	0.51888859272
77	-75.5	0.51735830307
77.5	-75.5	0.516038477421
78	-75.5	0.515009462833
78.5	-75.5	0.514347732067
79	-75.5	0.514122068882
79.5	-75.5	0.514377534389
80	-75.5	0.51513838768
80.5	-75.5	0.516397297382
81	-75.5	0.518114328384
81.5	-75.5	0.520221054554
82	-75.5	0.522627353668
82.5	-75.5	0.525227069855
83	-75.5	0.527908980846
83.5	-75.5	0.530566632748
84	-75.5	0.533103644848
84.5	-75.5	0.535440266132
85	-75.5	0.537512719631
85.5	-75.5	0.539282202721
86	-75.5	0.540714621544
86.5	-75.5	0.541793525219
87	-75.5	0.542516052723
87.5	-75.5	0.542890906334
88	-75.5	0.542934417725
88.5	-75.5	0.54267001152
89	-75.5	0.542129218578
89.5	-75.5	0.541351020336
90	-75.5	0.540380358696
90.5	-75.5	0.539268195629
91	-75.5	0.538065493107
91.5	-75.5	0.53682333231
92	-75.5	0.535589814186
92.5	-75.5	0.534408628941
93	-75.5	0.533314883709
93.5	-75.5	0.532337129116
94	-75.5	0.531492054462
94.5	-75.5	0.530798733234
95	-75.5	0.53026419878
95.5	-75.5	0.529883980751
96	-75.5	0.529642343521
96.5	-75.5	0.529512047768
97	-75.5	0.529453575611
97.5	-75.5	0.529415249825
98	-75.5	0.529335916042
98.5	-75.5	0.529149234295
99	-75.5	0.528795361519
99.5	-75.5	0.528231322765
100	-75.5	0.527439832687
100.5	-75.5	0.526433825493
101	-75.5	0.525260388851
101.5	-75.5	0.523993492126
102	-75.5	0.522725462914
102.5	-75.5	0.52155315876
103	-75.5	0.520560920238
103.5	-75.5	0.519808650017
104	-75.5	0.519320726395
104.5	-75.5	0.519082963467
105	-75.5	0.519049167633
105.5	-75.5	0.519144773483
106	-75.5	0.519285738468
106.5	-75.5	0.519386947155
107	-75.5	0.519376575947
107.5	-75.5	0.519200146198
108	-75.5	0.518822491169
108.5	-75.5	0.518221795559
109	-75.5	0.517387151718
109.5	-75.5	0.51630538702
110	-75.5	0.514957726002
110.5	-75.5	0.513318359852
111	-75.5	0.511358737946
111.5	-75.5	0.50904661417
112	-75.5	0.506349146366
112.5	-75.5	0.50324100256
113	-75.5	0.499712556601
113.5	-75.5	0.495780050755
114	-75.5	0.491486519575
114.5	-75.5	0.486903339624
115	-75.5	0.482126295567
115.5	-75.5	0.477271258831
116	-75.5	0.47246542573
116.5	-75.5	0.467840582132
117	-75.5	0.463527202606
117.5	-75.5	0.459645628929
118	-75.5	0.456301659346
118.5	-75.5	0.453580975533
119	-75.5	0.451545774937
119.5	-75.5	0.450231492519
120	-75.5	0.449644267559
120.5	-75.5	0.449758589268
121	-75.5	0.450516074896
121.5	-75.5	0.45183339715
122	-75.5	0.453607618809
122.5	-75.5	0.455722779036
123	-75.5	0.458064079285
123.5	-75.5	0.460529118776
124	-75.5	0.463028997183
124.5	-75.5	0.465489238501
125	-75.5	0.467857301235
125.5	-75.5	0.470095574856
126	-75.5	0.472178697586
126.5	-75.5	0.474092632532
127	-75.5	0.475832015276
127.5	-75.5	0.477402031422
128	-75.5	0.47881475091
128.5	-75.5	0.480087459087
129	-75.5	0.481239914894
129.5	-75.5	0.482292443514
130	-75.5	0.483261376619
130.5	-75.5	0.484159082174
131	-75.5	0.484986633062
131.5	-75.5	0.485741794109
132	-75.5	0.486411958933
132.5	-75.5	0.486984819174
133	-75.5	0.487446725368
133.5	-75.5	0.487788259983
134	-75.5	0.488002061844
134.5	-75.5	0.488090068102
135	-75.5	0.488059341908
135.5	-75.5	0.487923204899
136	-75.5	0.487699955702
136.5	-75.5	0.487412571907
137	-75.5	0.487084597349
137.5	-75.5	0.486742258072
138	-75.5	0.486414343119
138.5	-75.5	0.486127525568
139	-75.5	0.485911339521
139.5	-75.5	0.485799342394
140	-75.5	0.485823363066
140.5	-75.5	0.486015826464
141	-75.5	0.486405104399
141.5	-75.5	0.48701646924
142	-75.5	0.487877011299
142.5	-75.5	0.488997161388
143	-75.5	0.490380644798
143.5	-75.5	0.492020845413
144	-75.5	0.493905544281
144.5	-75.5	0.496012538671
145	-75.5	0.498333185911
145.5	-75.5	0.500858843327
146	-75.5	0.503596305847
146.5	-75.5	0.506522595882
147	-75.5	0.509626090527
147.5	-75.5	0.512884795666
148	-75.5	0.51627177
148.5	-75.5	0.519709408283
149	-75.5	0.523074567318
149.5	-75.5	0.526266515255
150	-75.5	0.529173195362
150.5	-75.5	0.531625807285
151	-75.5	0.533461928368
151.5	-75.5	0.53450024128
152	-75.5	0.5345454216
152.5	-75.5	0.533409953117
153	-75.5	0.530993938446
153.5	-75.5	0.527353942394
154	-75.5	0.522697865963
154.5	-75.5	0.517179071903
155	-75.5	0.510944902897
155.5	-75.5	0.504421114922
156	-75.5	0.498429894447
156.5	-75.5	0.49397200346
157	-75.5	0.492039889097
157.5	-75.5	0.495786994696
158	-75.5	0.503398537636
158.5	-75.5	0.516951441765
159	-75.5	0.53721600771
159.5	-75.5	0.564567804337
160	-75.5	0.598736405373
160.5	-75.5	0.639405608177
161	-75.5	0.686079621315
161.5	-75.5	0.738822340965
162	-75.5	0.793918073177
162.5	-75.5	0.850915074348
163	-75.5	0.90836417675
164	-75.5	1.01804924011
164.5	-75.5	1.0675702095
165	-75.5	1.11271452904
165.5	-75.5	1.1531380415
214.5	-75.5	1.7916778326
215	-75.5	1.78143584728
215.5	-75.5	1.77635037899
216	-75.5	1.776876688
216.5	-75.5	1.78694701195
217	-75.5	1.80808329582
217.5	-75.5	1.8449023962
218	-75.5	1.89941430092
218.5	-75.5	1.97531080246
219.5	-75.5	2.19598984718
220	-75.5	2.34009289742
220.5	-75.5	2.50185990334
221	-75.5	2.67430281639
221.5	-75.5	2.85036063194
222	-75.5	3.02060437202
222.5	-75.5	3.17381548882
223	-75.5	3.29933667183
223.5	-75.5	3.39006114006
224	-75.5	3.44203662872
224.5	-75.5	3.45370793343
225	-75.5	3.42616581917
225.5	-75.5	3.36710309982
226	-75.5	3.28339791298
226.5	-75.5	3.18403148651
227	-75.5	3.07927131653
227.5	-75.5	2.97935080528
228	-75.5	2.89356327057
228.5	-75.5	2.827947855
229	-75.5	2.78631067276
229.5	-75.5	2.77224874496
230	-75.5	2.78608560562
230.5	-75.5	2.82996201515
231	-75.5	2.90050244331
231.5	-75.5	2.99747133255
232	-75.5	3.11830234528
232.5	-75.5	3.25747084618
233	-75.5	3.4107260704
233.5	-75.5	3.57228970528
234	-75.5	3.73417878151
234.5	-75.5	3.88854861259
235	-75.5	4.02452707291
235.5	-75.5	4.13605737686
236	-75.5	4.21524000168
236.5	-75.5	4.25640535355
237	-75.5	4.2574338913
237.5	-75.5	4.21872138977
238	-75.5	4.14032936096
238.5	-75.5	4.02707719803
239	-75.5	3.88434147835
239.5	-75.5	3.72031569481
240	-75.5	3.54066753387
240.5	-75.5	3.35432910919
241	-75.5	3.16790533066
241.5	-75.5	2.98849391937
242	-75.5	2.82567882538
242.5	-75.5	2.68228268623
243	-75.5	2.56287431717
243.5	-75.5	2.4726858139
244	-75.5	2.41467499733
244.5	-75.5	2.39342546463
245	-75.5	2.41008687019
245.5	-75.5	2.46870279312
246	-75.5	2.57077240944
246.5	-75.5	2.71778535843
247	-75.5	2.90759754181
247.5	-75.5	3.1373565197
248	-75.5	3.40155529976
248.5	-75.5	3.69308662415
249	-75.5	4.00087118149
249.5	-75.5	4.31254720688
250	-75.5	4.61543273926
250.5	-75.5	4.89269351959
251	-75.5	5.13201570511
251.5	-75.5	5.31822776794
252	-75.5	5.43825674057
252.5	-75.5	5.48144483566
253	-75.5	5.44168376923
253.5	-75.5	5.31727600098
254	-75.5	5.11118936539
254.5	-75.5	4.83286952972
255	-75.5	4.49668359756
255.5	-75.5	4.11961507797
256	-75.5	3.72157764435
256.5	-75.5	3.3229868412
257	-75.5	2.94109153748
257.5	-75.5	2.58995890617
258	-75.5	2.27975273132
258.5	-75.5	2.01563334465
259	-75.5	1.80039250851
259.5	-75.5	1.63008189201
260	-75.5	1.50079143047
260.5	-75.5	1.40630269051
261	-75.5	1.34054720402
261.5	-75.5	1.29690432549
262	-75.5	1.27010512352
262.5	-75.5	1.25468206406
263	-75.5	1.24575185776
263.5	-75.5	1.23902761936
264	-75.5	1.23163473606
264.5	-75.5	1.22001540661
265	-75.5	1.20231771469
265.5	-75.5	1.17747938633
266	-75.5	1.14540874958
266.5	-75.5	1.10675144196
267	-75.5	1.06270265579
267.5	-75.5	1.01502418518
268	-75.5	0.965989053249
268.5	-75.5	0.917518436909
269	-75.5	0.8717648983
269.5	-75.5	0.830209970474
270	-75.5	0.794118106365
270.5	-75.5	0.764129936695
271	-75.5	0.740390837193
271.5	-75.5	0.7228525877
272	-75.5	0.71103566885
272.5	-75.5	0.704325377941
273	-75.5	0.701743364334
273.5	-75.5	0.702397584915
274	-75.5	0.705160439014
274.5	-75.5	0.708695590496
275	-75.5	0.71279668808
275.5	-75.5	0.715852797031
276	-75.5	0.717207431793
276.5	-75.5	0.716277837753
277	-75.5	0.712800264359
277.5	-75.5	0.706660866737
278	-75.5	0.69786041975
278.5	-75.5	0.686575889587
279	-75.5	0.673201441765
279.5	-75.5	0.658021330833
280	-75.5	0.641665101051
280.5	-75.5	0.624608695507
281	-75.5	0.607042551041
281.5	-75.5	0.589367568493
282	-75.5	0.571583330631
282.5	-75.5	0.554385900497
283	-75.5	0.537813723087
283.5	-75.5	0.521738052368
284	-75.5	0.506307542324
284.5	-75.5	0.492070972919
285	-75.5	0.479144752026
285.5	-75.5	0.467979043722
286	-75.5	0.458777546883
286.5	-75.5	0.45177474618
287	-75.5	0.447025924921
287.5	-75.5	0.444373041391
288	-75.5	0.443640291691
288.5	-75.5	0.444488227367
289	-75.5	0.446334451437
289.5	-75.5	0.449016422033
290	-75.5	0.452007681131
290.5	-75.5	0.454589366913
291	-75.5	0.456699758768
291.5	-75.5	0.457894384861
292	-75.5	0.457666665316
292.5	-75.5	0.455986917019
293	-75.5	0.452757626772
293.5	-75.5	0.448130279779
294	-75.5	0.441870748997
294.5	-75.5	0.434843540192
295	-75.5	0.427364945412
295.5	-75.5	0.419584423304
296	-75.5	0.412161201239
296.5	-75.5	0.405394464731
297	-75.5	0.39954161644
297.5	-75.5	0.394940793514
298	-75.5	0.391714990139
298.5	-75.5	0.389975994825
299	-75.5	0.389788508415
299.5	-75.5	0.391130775213
300	-75.5	0.394062161446
300.5	-75.5	0.398498803377
301	-75.5	0.404427438974
301.5	-75.5	0.411739438772
333	-75.5	0.732357442379
333.5	-75.5	0.699006974697
334	-75.5	0.665343046188
334.5	-75.5	0.632455825806
335	-75.5	0.60104483366
335.5	-75.5	0.571840107441
336	-75.5	0.545091688633
336.5	-75.5	0.521074175835
337	-75.5	0.499906033278
337.5	-75.5	0.481539845467
338	-75.5	0.466097503901
338.5	-75.5	0.453407347202
339	-75.5	0.443431735039
339.5	-75.5	0.435876339674
340	-75.5	0.430393844843
340.5	-75.5	0.426615029573
341	-75.5	0.424056231976
341.5	-75.5	0.422793924809
342	-75.5	0.422178953886
342.5	-75.5	0.421992748976
343	-75.5	0.422030329704
343.5	-75.5	0.422229915857
344	-75.5	0.422482907772
344.5	-75.5	0.422723442316
345	-75.5	0.422898173332
345.5	-75.5	0.422976016998
346	-75.5	0.422925174236
346.5	-75.5	0.422722548246
347	-75.5	0.422335594893
347.5	-75.5	0.421738445759
348	-75.5	0.420907855034
348.5	-75.5	0.419832825661
349	-75.5	0.418519407511
349.5	-75.5	0.416991889477
350	-75.5	0.415294528008
350.5	-75.5	0.413488447666
351	-75.5	0.411636948586
351.5	-75.5	0.409821808338
352	-75.5	0.408115655184
352.5	-75.5	0.40657299757
353	-75.5	0.405222147703
353.5	-75.5	0.404071390629
354	-75.5	0.403067618608
354.5	-75.5	0.402186751366
355	-75.5	0.401314288378
355.5	-75.5	0.400367885828
356	-75.5	0.399244695902
356.5	-75.5	0.397887855768
357	-75.5	0.396184682846
357.5	-75.5	0.394100338221
358	-75.5	0.391613602638
358.5	-75.5	0.388738334179
359	-75.5	0.385533243418
359.5	-75.5	0.382086098194
360	-75.5	0.378524273634
0	-76	0.400328338146
0.5	-76	0.397018253803
1	-76	0.393566995859
1.5	-76	0.390146642923
2	-76	0.386946737766
2.5	-76	0.384147644043
3	-76	0.381971210241
3.5	-76	0.380727946758
4	-76	0.380686402321
4.5	-76	0.382132053375
5	-76	0.385314166546
5.5	-76	0.390538334846
6	-76	0.398064166307
6.5	-76	0.4081633389
7	-76	0.420929461718
7.5	-76	0.43636354804
8	-76	0.454204529524
8.5	-76	0.473945319653
9	-76	0.494855254889
9.5	-76	0.516056954861
10	-76	0.536615431309
10.5	-76	0.555595934391
11	-76	0.572199821472
11.5	-76	0.585932850838
12	-76	0.596765756607
12.5	-76	0.604770421982
13	-76	0.610344648361
13.5	-76	0.614109694958
14	-76	0.616792917252
14.5	-76	0.619082987309
15	-76	0.621450841427
15.5	-76	0.62412327528
16	-76	0.627074539661
16.5	-76	0.630041897297
17	-76	0.632613241673
17.5	-76	0.634287416935
18	-76	0.63462895155
18.5	-76	0.633334457874
19	-76	0.630218446255
19.5	-76	0.625186383724
20	-76	0.618299603462
20.5	-76	0.609876811504
21	-76	0.600182116032
21.5	-76	0.589528083801
22	-76	0.578321635723
22.5	-76	0.566959738731
23	-76	0.555795609951
23.5	-76	0.545069098473
24	-76	0.535150468349
24.5	-76	0.52610039711
25	-76	0.518029749393
25.5	-76	0.511023163795
26	-76	0.505102455616
26.5	-76	0.500242352486
27	-76	0.496406197548
27.5	-76	0.493535012007
28	-76	0.491516321898
28.5	-76	0.490246087313
29	-76	0.489623785019
29.5	-76	0.489536106586
30	-76	0.489884585142
30.5	-76	0.490568727255
31	-76	0.491510957479
31.5	-76	0.4926404953
32	-76	0.493898421526
32.5	-76	0.495231032372
33	-76	0.496594697237
33.5	-76	0.497944504023
34	-76	0.499252766371
34.5	-76	0.500484108925
35	-76	0.501608550549
35.5	-76	0.502623319626
36	-76	0.503529131413
36.5	-76	0.504353582859
37	-76	0.505199193954
37.5	-76	0.506100893021
38	-76	0.507202625275
38.5	-76	0.508651971817
39	-76	0.51059025526
39.5	-76	0.513163805008
40	-76	0.516491293907
40.5	-76	0.520668923855
41	-76	0.525728404522
41.5	-76	0.531612217426
42	-76	0.538158237934
42.5	-76	0.545078575611
43	-76	0.551990330219
43.5	-76	0.558446705341
44	-76	0.56397330761
44.5	-76	0.56812608242
45	-76	0.570553600788
45.5	-76	0.571024179459
46	-76	0.569471776485
46.5	-76	0.56598764658
47	-76	0.560809969902
47.5	-76	0.554286658764
48	-76	0.546839535236
48.5	-76	0.538911342621
49	-76	0.530921280384
49.5	-76	0.523226499557
50	-76	0.516174972057
50.5	-76	0.509968936443
51	-76	0.504771471024
51.5	-76	0.500643968582
52	-76	0.497594416142
52.5	-76	0.49560341239
53	-76	0.494592785835
53.5	-76	0.494455844164
54	-76	0.495077639818
54.5	-76	0.496343016624
55	-76	0.498148053885
55.5	-76	0.500402331352
56	-76	0.503030240536
56.5	-76	0.505976974964
57	-76	0.509192883968
57.5	-76	0.512636423111
58	-76	0.516264796257
58.5	-76	0.520039379597
59	-76	0.523912787437
59.5	-76	0.527831673622
60	-76	0.531739473343
60.5	-76	0.535573542118
61	-76	0.539272844791
61.5	-76	0.54277330637
62	-76	0.546019673347
62.5	-76	0.548959374428
63	-76	0.551546275616
63.5	-76	0.553753972054
64	-76	0.555553913116
64.5	-76	0.556934714317
65	-76	0.557888448238
65.5	-76	0.558422386646
66	-76	0.558546364307
66.5	-76	0.55827409029
67	-76	0.557618379593
67.5	-76	0.556591391563
68	-76	0.555201113224
68.5	-76	0.553457140923
69	-76	0.551377415657
69.5	-76	0.548987150192
70	-76	0.546326160431
70.5	-76	0.543450176716
71	-76	0.540427625179
71.5	-76	0.537336945534
72	-76	0.53426104784
72.5	-76	0.531278967857
73	-76	0.528459787369
73.5	-76	0.525859057903
74	-76	0.523515820503
74.5	-76	0.521446883678
75	-76	0.51965713501
75.5	-76	0.518145859241
76	-76	0.516909658909
76.5	-76	0.51593965292
77	-76	0.515241742134
77.5	-76	0.514829337597
78	-76	0.514713346958
78.5	-76	0.514909625053
79	-76	0.515418589115
79.5	-76	0.516243338585
80	-76	0.517378389835
80.5	-76	0.518814325333
81	-76	0.520516455173
81.5	-76	0.522441089153
82	-76	0.524534761906
82.5	-76	0.526737391949
83	-76	0.528983831406
83.5	-76	0.531219005585
84	-76	0.533376574516
84.5	-76	0.535404205322
85	-76	0.537263453007
85.5	-76	0.538915514946
86	-76	0.540340185165
86.5	-76	0.541526854038
87	-76	0.54248124361
87.5	-76	0.543199837208
88	-76	0.543691217899
88.5	-76	0.543965041637
89	-76	0.544029414654
89.5	-76	0.543911397457
90	-76	0.543630897999
90.5	-76	0.543210506439
91	-76	0.54267591238
91.5	-76	0.542055845261
92	-76	0.541379928589
92.5	-76	0.540679454803
93	-76	0.539983808994
93.5	-76	0.539320707321
94	-76	0.538708746433
94.5	-76	0.538162410259
95	-76	0.537686288357
95.5	-76	0.537269055843
96	-76	0.536899089813
96.5	-76	0.536555111408
97	-76	0.536196529865
97.5	-76	0.535781741142
98	-76	0.535263776779
98.5	-76	0.534601330757
99	-76	0.533763468266
99.5	-76	0.532733678818
100	-76	0.531515181065
100.5	-76	0.53013163805
101	-76	0.5286257267
101.5	-76	0.527055203915
102	-76	0.52548289299
102.5	-76	0.52396774292
103	-76	0.522555947304
103.5	-76	0.521273493767
104	-76	0.520120441914
104.5	-76	0.519075036049
105	-76	0.518096983433
105.5	-76	0.517135083675
106	-76	0.51613599062
106.5	-76	0.515047252178
107	-76	0.513830423355
107.5	-76	0.512462079525
108	-76	0.510930716991
108.5	-76	0.509227275848
109	-76	0.507344841957
109.5	-76	0.505284130573
110	-76	0.503046929836
110.5	-76	0.500637114048
111	-76	0.498054951429
111.5	-76	0.495297372341
112	-76	0.492362588644
112.5	-76	0.489252567291
113	-76	0.485977292061
113.5	-76	0.482557147741
114	-76	0.479024708271
114.5	-76	0.475426226854
115	-76	0.471819967031
115.5	-76	0.468271166086
116	-76	0.464857637882
116.5	-76	0.461658239365
117	-76	0.458752155304
117.5	-76	0.456212580204
118	-76	0.454107731581
118.5	-76	0.452492773533
119	-76	0.451408177614
119.5	-76	0.450877994299
120	-76	0.450901120901
120.5	-76	0.451454490423
121	-76	0.452490776777
121.5	-76	0.453948795795
122	-76	0.455746650696
122.5	-76	0.457797914743
123	-76	0.460014998913
123.5	-76	0.462312668562
124	-76	0.464616179466
124.5	-76	0.466864496469
125	-76	0.469008892775
125.5	-76	0.471014916897
126	-76	0.472862333059
126.5	-76	0.474544256926
127	-76	0.476067960262
127.5	-76	0.477449059486
128	-76	0.478710472584
128.5	-76	0.479879647493
129	-76	0.48098424077
129.5	-76	0.482049971819
130	-76	0.483096241951
130.5	-76	0.484131902456
131	-76	0.485157191753
131.5	-76	0.486161440611
132	-76	0.487127512693
132.5	-76	0.48803088069
133	-76	0.488845050335
133.5	-76	0.489549189806
134	-76	0.490124136209
134.5	-76	0.490562409163
135	-76	0.490865379572
135.5	-76	0.491046667099
136	-76	0.491128146648
136.5	-76	0.491142481565
137	-76	0.491127967834
137.5	-76	0.491127312183
138	-76	0.491185665131
138.5	-76	0.491346329451
139	-76	0.491647511721
139.5	-76	0.49212244153
140	-76	0.492811381817
140.5	-76	0.493732452393
141	-76	0.494894683361
141.5	-76	0.496301651001
142	-76	0.497936964035
142.5	-76	0.499784946442
143	-76	0.501816093922
143.5	-76	0.503997266293
144	-76	0.506279110909
144.5	-76	0.508614718914
145	-76	0.51100987196
145.5	-76	0.513412833214
146	-76	0.515798151493
146.5	-76	0.518151521683
147	-76	0.520466089249
147.5	-76	0.522738993168
148	-76	0.524957478046
148.5	-76	0.527098119259
149	-76	0.529134333134
149.5	-76	0.531029820442
150	-76	0.532721877098
150.5	-76	0.534136593342
151	-76	0.535132646561
151.5	-76	0.535554111004
152	-76	0.535183727741
152.5	-76	0.533802628517
153	-76	0.531358897686
153.5	-76	0.528058648109
154	-76	0.523991167545
154.5	-76	0.519075810909
155	-76	0.513632535934
155.5	-76	0.508255541325
156	-76	0.503625929356
156.5	-76	0.500657439232
157	-76	0.50069630146
157.5	-76	0.504412531853
158	-76	0.512348353863
158.5	-76	0.52745193243
159	-76	0.547401487827
159.5	-76	0.573002159595
160	-76	0.604040026665
160.5	-76	0.640143454075
161	-76	0.680833101273
161.5	-76	0.727322757244
162	-76	0.775156259537
162.5	-76	0.824697136879
212	-76	2.00593113899
212.5	-76	1.98819613457
213	-76	1.96983420849
213.5	-76	1.95253586769
214	-76	1.93779814243
214.5	-76	1.92940306664
215	-76	1.92839086056
215.5	-76	1.93892526627
216	-76	1.96608304977
216.5	-76	2.01009654999
217	-76	2.07336568832
217.5	-76	2.15783667564
218	-76	2.26598858833
218.5	-76	2.39656686783
219	-76	2.54818511009
219.5	-76	2.71524429321
220	-76	2.89318728447
220.5	-76	3.07349777222
221	-76	3.24720716476
221.5	-76	3.4040081501
222	-76	3.53620743752
222.5	-76	3.63756203651
223	-76	3.70331692696
223.5	-76	3.73293852806
224	-76	3.73064565659
224.5	-76	3.70040416718
225	-76	3.65045499802
225.5	-76	3.58791661263
226	-76	3.52229046822
226.5	-76	3.46187901497
227	-76	3.41026139259
227.5	-76	3.37028288841
228	-76	3.34330606461
228.5	-76	3.32691478729
229	-76	3.31875133514
229.5	-76	3.31780743599
230	-76	3.31999850273
230.5	-76	3.32370448112
231	-76	3.33187866211
231.5	-76	3.34466457367
232	-76	3.36327290535
232.5	-76	3.38889193535
233	-76	3.42467808723
233.5	-76	3.47027301788
234	-76	3.52214336395
234.5	-76	3.57528066635
235	-76	3.62716317177
235.5	-76	3.66987538338
236	-76	3.69409561157
236.5	-76	3.69708704948
237	-76	3.67232084274
237.5	-76	3.61740326881
238	-76	3.53160047531
238.5	-76	3.41770172119
239	-76	3.28230118752
239.5	-76	3.12973213196
240	-76	2.96970033646
240.5	-76	2.80497837067
241	-76	2.64282298088
241.5	-76	2.48886752129
242	-76	2.34792375565
242.5	-76	2.22453308105
243	-76	2.12082242966
243.5	-76	2.04111909866
244	-76	1.99261116982
244.5	-76	1.97901952267
245	-76	2.00352120399
245.5	-76	2.07213664055
246	-76	2.18824315071
246.5	-76	2.35504436493
247	-76	2.574685812
247.5	-76	2.84353280067
248	-76	3.15579295158
248.5	-76	3.50215101242
249	-76	3.87349534035
249.5	-76	4.25494527817
250	-76	4.6292386055
250.5	-76	4.98037862778
251	-76	5.28904819489
251.5	-76	5.53784370422
252	-76	5.71110343933
252.5	-76	5.7949795723
253	-76	5.78380060196
253.5	-76	5.67465829849
254	-76	5.47266483307
254.5	-76	5.18849611282
255	-76	4.83842325211
255.5	-76	4.44105529785
256	-76	4.01829814911
256.5	-76	3.59192061424
257	-76	3.18116140366
257.5	-76	2.80176901817
258	-76	2.4646730423
258.5	-76	2.176872015
259	-76	1.93899083138
259.5	-76	1.74954712391
260	-76	1.60424888134
260.5	-76	1.49794125557
261	-76	1.42399644852
261.5	-76	1.37410235405
262	-76	1.34205007553
262.5	-76	1.32221233845
263	-76	1.30892825127
263.5	-76	1.29719746113
264	-76	1.28410148621
264.5	-76	1.26709270477
265	-76	1.24424779415
265.5	-76	1.21484363079
266	-76	1.17857134342
266.5	-76	1.13610947132
267	-76	1.08866095543
267.5	-76	1.03796470165
268	-76	0.985845983028
268.5	-76	0.934214234352
269	-76	0.884836375713
269.5	-76	0.839284360409
270	-76	0.798785805702
270.5	-76	0.764206767082
271	-76	0.736343026161
271.5	-76	0.714847326279
272	-76	0.699290335178
272.5	-76	0.689314544201
273	-76	0.68391007185
273.5	-76	0.682463824749
274	-76	0.682857334614
274.5	-76	0.684732735157
275	-76	0.686581909657
275.5	-76	0.687819242477
276	-76	0.687401890755
276.5	-76	0.684792160988
277	-76	0.679837286472
277.5	-76	0.672518968582
278	-76	0.663073182106
278.5	-76	0.651778042316
279	-76	0.638964653015
279.5	-76	0.625224590302
280	-76	0.610669076443
280.5	-76	0.595484495163
281	-76	0.579944491386
281.5	-76	0.56406968832
282	-76	0.547910034657
282.5	-76	0.53141272068
283	-76	0.51466268301
283.5	-76	0.497480750084
284	-76	0.479996860027
284.5	-76	0.463127434254
285	-76	0.446586489677
285.5	-76	0.430714488029
286	-76	0.41596737504
286.5	-76	0.402653455734
287	-76	0.391152769327
287.5	-76	0.381637692451
288	-76	0.374266564846
288.5	-76	0.368974864483
289	-76	0.36568787694
289.5	-76	0.36408790946
290	-76	0.36403092742
290.5	-76	0.36500403285
291	-76	0.366766214371
291.5	-76	0.368920087814
292	-76	0.370678782463
292.5	-76	0.372376173735
293	-76	0.373801290989
293.5	-76	0.374803841114
294	-76	0.375283241272
294.5	-76	0.375233739614
295	-76	0.374760895967
295.5	-76	0.373998701572
296	-76	0.373142808676
296.5	-76	0.372384190559
297	-76	0.371921032667
297.5	-76	0.371873468161
298	-76	0.372460484505
298.5	-76	0.37368530035
299	-76	0.375632911921
299.5	-76	0.378315985203
300	-76	0.381685256958
300.5	-76	0.385752111673
301	-76	0.390469014645
301.5	-76	0.395815610886
302	-76	0.401733279228
302.5	-76	0.408176213503
303	-76	0.415091216564
303.5	-76	0.422410011292
304	-76	0.430026292801
333.5	-76	0.720949709415
334	-76	0.69102948904
334.5	-76	0.661879301071
335	-76	0.634037971497
335.5	-76	0.607898235321
336	-76	0.583953559399
336.5	-76	0.562171041965
337	-76	0.542506158352
337.5	-76	0.525116622448
338	-76	0.509821176529
338.5	-76	0.496847301722
339	-76	0.485874146223
339.5	-76	0.476740837097
340	-76	0.469197362661
340.5	-76	0.463296681643
341	-76	0.458541184664
341.5	-76	0.454780995846
342	-76	0.451750308275
342.5	-76	0.449450105429
343	-76	0.447720617056
343.5	-76	0.446398794651
344	-76	0.445411175489
344.5	-76	0.444645702839
345	-76	0.443990796804
345.5	-76	0.443366646767
346	-76	0.442705214024
346.5	-76	0.441925346851
347	-76	0.440954566002
347.5	-76	0.439724117517
348	-76	0.438185065985
348.5	-76	0.436307132244
349	-76	0.434092849493
349.5	-76	0.431579232216
350	-76	0.428834885359
350.5	-76	0.425958126783
351	-76	0.423072546721
351.5	-76	0.420309871435
352	-76	0.417796671391
352.5	-76	0.41564193368
353	-76	0.413919240236
353.5	-76	0.412667542696
354	-76	0.411860018969
354.5	-76	0.411467641592
355	-76	0.411367803812
355.5	-76	0.411446422338
356	-76	0.411549568176
356.5	-76	0.411571532488
357	-76	0.411328285933
357.5	-76	0.410717964172
358	-76	0.4096532166
358.5	-76	0.408073753119
359	-76	0.405960947275
359.5	-76	0.403349727392
360	-76	0.400328338146
0	-76.5	0.421781688929
0.5	-76.5	0.41773417592
1	-76.5	0.413502454758
1.5	-76.5	0.409249991179
2	-76.5	0.405155420303
2.5	-76.5	0.40141916275
3	-76.5	0.398268312216
3.5	-76.5	0.39595028758
4	-76.5	0.394664257765
4.5	-76.5	0.394680321217
5	-76.5	0.396243393421
5.5	-76.5	0.399739801884
6	-76.5	0.405474871397
6.5	-76.5	0.413707911968
7	-76.5	0.424612402916
7.5	-76.5	0.438155978918
8	-76.5	0.454144626856
8.5	-76.5	0.472130000591
9	-76.5	0.491403251886
9.5	-76.5	0.511079668999
10	-76.5	0.530164241791
10.5	-76.5	0.547673642635
11	-76.5	0.56277936697
11.5	-76.5	0.574937999249
12	-76.5	0.583965837955
12.5	-76.5	0.589939057827
13	-76.5	0.593225717545
13.5	-76.5	0.594441890717
14	-76.5	0.594392478466
14.5	-76.5	0.593651175499
15	-76.5	0.592883169651
15.5	-76.5	0.592506289482
16	-76.5	0.592699050903
16.5	-76.5	0.593422949314
17	-76.5	0.5944622159
17.5	-76.5	0.595503270626
18	-76.5	0.59618729353
18.5	-76.5	0.596197247505
19	-76.5	0.595285594463
19.5	-76.5	0.593281745911
20	-76.5	0.590142548084
20.5	-76.5	0.585858881474
21	-76.5	0.580523073673
21.5	-76.5	0.574244558811
22	-76.5	0.567365348339
22.5	-76.5	0.560015261173
23	-76.5	0.552409172058
23.5	-76.5	0.544753491879
24	-76.5	0.537225604057
24.5	-76.5	0.529973685741
25	-76.5	0.523142397404
25.5	-76.5	0.516838848591
26	-76.5	0.511141061783
26.5	-76.5	0.506109654903
27	-76.5	0.501781523228
27.5	-76.5	0.498170852661
28	-76.5	0.495256394148
28.5	-76.5	0.493002325296
29	-76.5	0.491361707449
29.5	-76.5	0.490282088518
30	-76.5	0.489700615406
30.5	-76.5	0.489551693201
31	-76.5	0.489776492119
31.5	-76.5	0.490297347307
32	-76.5	0.491045862436
32.5	-76.5	0.491952240467
33	-76.5	0.492934912443
33.5	-76.5	0.493934869766
34	-76.5	0.494897633791
34.5	-76.5	0.495778530836
35	-76.5	0.496546030045
35.5	-76.5	0.49721083045
36	-76.5	0.497772455215
36.5	-76.5	0.498297691345
37	-76.5	0.49888047576
37.5	-76.5	0.499647259712
38	-76.5	0.500762283802
38.5	-76.5	0.502411723137
39	-76.5	0.504808485508
39.5	-76.5	0.508153855801
40	-76.5	0.512620329857
40.5	-76.5	0.518341720104
41	-76.5	0.525365650654
41.5	-76.5	0.533623695374
42	-76.5	0.542910575867
42.5	-76.5	0.552872717381
43	-76.5	0.563039124012
43.5	-76.5	0.572859168053
44	-76.5	0.5817450881
44.5	-76.5	0.589125990868
45	-76.5	0.594518244267
45.5	-76.5	0.597572207451
46	-76.5	0.59810513258
46.5	-76.5	0.596127927303
47	-76.5	0.591821730137
47.5	-76.5	0.585520863533
48	-76.5	0.577664196491
48.5	-76.5	0.568759799004
49	-76.5	0.559316515923
49.5	-76.5	0.549800157547
50	-76.5	0.540613353252
50.5	-76.5	0.532059371471
51	-76.5	0.524372577667
51.5	-76.5	0.517725646496
52	-76.5	0.512185692787
52.5	-76.5	0.507778465748
53	-76.5	0.504476070404
53.5	-76.5	0.502225458622
54	-76.5	0.500956237316
54.5	-76.5	0.500590443611
55	-76.5	0.501049816608
55.5	-76.5	0.50226444006
56	-76.5	0.50417214632
56.5	-76.5	0.506712913513
57	-76.5	0.509830474854
57.5	-76.5	0.513459503651
58	-76.5	0.51753115654
58.5	-76.5	0.521969020367
59	-76.5	0.526681065559
59.5	-76.5	0.531567275524
60	-76.5	0.536519408226
60.5	-76.5	0.541420578957
61	-76.5	0.546150684357
61.5	-76.5	0.550606548786
62	-76.5	0.554675281048
62.5	-76.5	0.55826485157
63	-76.5	0.561288833618
63.5	-76.5	0.563678026199
64	-76.5	0.565387308598
64.5	-76.5	0.566387236118
65	-76.5	0.566678166389
65.5	-76.5	0.566274762154
66	-76.5	0.565218448639
66.5	-76.5	0.563565373421
67	-76.5	0.561387002468
67.5	-76.5	0.558762133121
68	-76.5	0.555777668953
68.5	-76.5	0.552521765232
69	-76.5	0.54907989502
69.5	-76.5	0.54554182291
70	-76.5	0.541983127594
70.5	-76.5	0.538488149643
71	-76.5	0.535121619701
71.5	-76.5	0.531955420971
72	-76.5	0.529039204121
72.5	-76.5	0.526423037052
73	-76.5	0.524132430553
73.5	-76.5	0.522183954716
74	-76.5	0.520567297935
74.5	-76.5	0.519272387028
75	-76.5	0.518276929855
75.5	-76.5	0.517552912235
76	-76.5	0.517070889473
76.5	-76.5	0.516800403595
77	-76.5	0.516722500324
77.5	-76.5	0.516819894314
78	-76.5	0.517089903355
78.5	-76.5	0.517516851425
79	-76.5	0.518097758293
79.5	-76.5	0.518836855888
80	-76.5	0.519723594189
80.5	-76.5	0.520761489868
81	-76.5	0.521933436394
81.5	-76.5	0.523230135441
82	-76.5	0.524632930756
82.5	-76.5	0.526114046574
83	-76.5	0.527642190456
83.5	-76.5	0.529184758663
84	-76.5	0.530713438988
84.5	-76.5	0.532203555107
85	-76.5	0.533624827862
85.5	-76.5	0.534960329533
86	-76.5	0.53619736433
86.5	-76.5	0.537335276604
87	-76.5	0.538366019726
87.5	-76.5	0.53929412365
88	-76.5	0.540113449097
88.5	-76.5	0.540823459625
89	-76.5	0.541419506073
89.5	-76.5	0.541894555092
90	-76.5	0.542240798473
90.5	-76.5	0.542451560497
91	-76.5	0.542522549629
91.5	-76.5	0.542448103428
92	-76.5	0.542241215706
92.5	-76.5	0.541912734509
93	-76.5	0.541486024857
93.5	-76.5	0.540985226631
94	-76.5	0.540436625481
94.5	-76.5	0.53986209631
95	-76.5	0.539275288582
95.5	-76.5	0.538695573807
96	-76.5	0.538126170635
96.5	-76.5	0.537565648556
97	-76.5	0.537000715733
97.5	-76.5	0.536406457424
98	-76.5	0.535755336285
98.5	-76.5	0.535025179386
99	-76.5	0.534191012383
99.5	-76.5	0.533238172531
100	-76.5	0.532160639763
100.5	-76.5	0.530962347984
101	-76.5	0.529654860497
101.5	-76.5	0.528257012367
102	-76.5	0.526788175106
102.5	-76.5	0.525264382362
103	-76.5	0.523695349693
103.5	-76.5	0.522081434727
104	-76.5	0.520413815975
104.5	-76.5	0.518676877022
105	-76.5	0.516852557659
105.5	-76.5	0.514924168587
106	-76.5	0.512878715992
106.5	-76.5	0.510708153248
107	-76.5	0.508413016796
107.5	-76.5	0.506002962589
108	-76.5	0.503497481346
108.5	-76.5	0.500918269157
109	-76.5	0.498293608427
109.5	-76.5	0.495653450489
110	-76.5	0.493026584387
110.5	-76.5	0.490436553955
111	-76.5	0.487900942564
111.5	-76.5	0.485428601503
112	-76.5	0.48302346468
112.5	-76.5	0.480685889721
113	-76.5	0.478413283825
113.5	-76.5	0.476202428341
114	-76.5	0.47405603528
114.5	-76.5	0.471978992224
115	-76.5	0.469983100891
115.5	-76.5	0.468085020781
116	-76.5	0.466315299273
116.5	-76.5	0.464708119631
117	-76.5	0.463302433491
117.5	-76.5	0.462139338255
118	-76.5	0.461260795593
118.5	-76.5	0.460704684258
119	-76.5	0.46049875021
119.5	-76.5	0.460658729076
120	-76.5	0.461185246706
120.5	-76.5	0.462064921856
121	-76.5	0.463271796703
121.5	-76.5	0.464763909578
122	-76.5	0.466491430998
122.5	-76.5	0.468393713236
123	-76.5	0.470409065485
123.5	-76.5	0.472475796938
124	-76.5	0.474536985159
124.5	-76.5	0.476544380188
125	-76.5	0.478460252285
125.5	-76.5	0.480258733034
126	-76.5	0.481925755739
126.5	-76.5	0.483461529016
127	-76.5	0.484876275063
127.5	-76.5	0.486188828945
128	-76.5	0.487420558929
128.5	-76.5	0.488596558571
129	-76.5	0.489738345146
129.5	-76.5	0.490865379572
130	-76.5	0.491990566254
130.5	-76.5	0.493116855621
131	-76.5	0.494239360094
131.5	-76.5	0.49534496665
132	-76.5	0.496409833431
132.5	-76.5	0.49740639329
133	-76.5	0.498305857182
133.5	-76.5	0.499081373215
134	-76.5	0.499712914228
134.5	-76.5	0.500188529491
135	-76.5	0.500508785248
135.5	-76.5	0.500687718391
136	-76.5	0.500753104687
136.5	-76.5	0.500744283199
137	-76.5	0.5007122159
137.5	-76.5	0.50071388483
138	-76.5	0.500808477402
138.5	-76.5	0.501062810421
139	-76.5	0.501530945301
139.5	-76.5	0.502248108387
140	-76.5	0.503246426582
140.5	-76.5	0.504547774792
141	-76.5	0.506144344807
141.5	-76.5	0.508001923561
142	-76.5	0.510074138641
142.5	-76.5	0.512296020985
143	-76.5	0.514588654041
143.5	-76.5	0.516862988472
144	-76.5	0.51901525259
144.5	-76.5	0.52098351717
145	-76.5	0.522708237171
145.5	-76.5	0.524145007133
146	-76.5	0.525265157223
146.5	-76.5	0.526083946228
147	-76.5	0.526635706425
147.5	-76.5	0.526975214481
148	-76.5	0.527189493179
148.5	-76.5	0.527328908443
149	-76.5	0.527490019798
149.5	-76.5	0.52774721384
150	-76.5	0.528110861778
150.5	-76.5	0.528542459011
151	-76.5	0.528916060925
151.5	-76.5	0.529042363167
152	-76.5	0.528756976128
152.5	-76.5	0.528061628342
153	-76.5	0.526805043221
153.5	-76.5	0.524840831757
154	-76.5	0.522159397602
154.5	-76.5	0.518975436687
155	-76.5	0.5156057477
155.5	-76.5	0.512647986412
156	-76.5	0.510682582855
156.5	-76.5	0.510501742363
157	-76.5	0.513444840908
157.5	-76.5	0.519904613495
158	-76.5	0.530273973942
158.5	-76.5	0.544968783855
159	-76.5	0.566117882729
159.5	-76.5	0.59098803997
160	-76.5	0.620012044907
160.5	-76.5	0.654699623585
161	-76.5	0.69164198637
161.5	-76.5	0.733662188053
162	-76.5	0.776699364185
162.5	-76.5	0.821718275547
210	-76.5	2.05651497841
210.5	-76.5	2.05600905418
211	-76.5	2.05193805695
211.5	-76.5	2.04433727264
212	-76.5	2.03377270699
212.5	-76.5	2.02128505707
