287.5	-74.5	0.682982861996
288	-74.5	0.683740735054
288.5	-74.5	0.684133470058
289	-74.5	0.684452354908
289.5	-74.5	0.685011863708
290	-74.5	0.686174094677
290.5	-74.5	0.688347101212
291	-74.5	0.691934704781
291.5	-74.5	0.697391808033
292	-74.5	0.70518553257
292.5	-74.5	0.715696275234
293	-74.5	0.729196727276
293.5	-74.5	0.745798766613
294	-74.5	0.765383183956
294.5	-74.5	0.787563562393
295	-74.5	0.811751306057
295.5	-74.5	0.83710873127
296	-74.5	0.862718462944
296.5	-74.5	0.887858986855
297	-74.5	0.911855757236
297.5	-74.5	0.934402406216
298	-74.5	0.955439686775
298.5	-74.5	0.975251436234
299	-74.5	0.994307398796
335	-74.5	3.96373105049
335.5	-74.5	3.9996945858
336	-74.5	4.01300430298
336.5	-74.5	4.00544977188
337	-74.5	3.97987771034
337.5	-74.5	3.93994164467
338	-74.5	3.89069914818
338.5	-74.5	3.83733010292
339	-74.5	3.78500199318
339.5	-74.5	3.73853468895
340	-74.5	3.70196723938
340.5	-74.5	3.67852258682
341	-74.5	3.67071080208
341.5	-74.5	3.68025922775
342	-74.5	3.70844554901
342.5	-74.5	3.75600481033
343	-74.5	3.82354426384
343.5	-74.5	3.91204547882
344	-74.5	4.0208864212
344.5	-74.5	4.14935541153
345	-74.5	4.29610204697
345.5	-74.5	4.45824813843
346	-74.5	4.63183546066
346.5	-74.5	4.81147861481
347	-74.5	4.98959684372
347.5	-74.5	5.15883588791
348	-74.5	5.31074285507
348.5	-74.5	5.43656110764
349	-74.5	5.52936792374
349.5	-74.5	5.58371925354
350	-74.5	5.59645605087
350.5	-74.5	5.56710767746
351	-74.5	5.49774503708
351.5	-74.5	5.39270830154
352	-74.5	5.25786685944
352.5	-74.5	5.09973192215
353	-74.5	4.92535257339
353.5	-74.5	4.74194478989
354	-74.5	4.5531873703
354.5	-74.5	4.36417531967
355	-74.5	4.17676258087
355.5	-74.5	3.99247026443
356	-74.5	3.81214976311
356.5	-74.5	3.6356844902
357	-74.5	3.46260476112
357.5	-74.5	3.29399108887
358	-74.5	3.13001775742
358.5	-74.5	2.97249174118
359	-74.5	2.82389307022
359.5	-74.5	2.68726086617
0.5	-75	2.14047813416
1	-75	2.10250306129
1.5	-75	2.08718276024
2	-75	2.09560275078
2.5	-75	2.1296107769
3	-75	2.18955469131
3.5	-75	2.28356313705
4	-75	2.42083311081
4.5	-75	2.61494040489
5	-75	2.88251233101
5.5	-75	3.24347615242
6	-75	3.72080993652
6.5	-75	4.34884309769
7	-75	5.16331768036
7.5	-75	6.2032828331
8	-75	7.49870347977
8.5	-75	9.07600212097
9	-75	10.9530582428
9.5	-75	13.1325101852
10	-75	15.6013154984
10.5	-75	18.3314094543
11	-75	21.2792301178
11.5	-75	24.3945045471
12	-75	27.6153659821
12.5	-75	30.8671398163
13	-75	34.0639724731
13.5	-75	37.1095504761
14	-75	39.896320343
14.5	-75	42.3160171509
15	-75	44.2666473389
15.5	-75	45.658618927
16	-75	46.421421051
16.5	-75	46.5233612061
17	-75	45.959690094
17.5	-75	44.7633666992
18	-75	42.9996414185
18.5	-75	40.7582130432
19	-75	38.1460800171
19.5	-75	35.2808532715
20	-75	32.2796401978
20.5	-75	29.2494621277
21	-75	26.2904281616
21.5	-75	23.4863185883
22	-75	20.9013843536
22.5	-75	18.5777244568
23	-75	16.536365509
23.5	-75	14.7825098038
24	-75	13.3069133759
24.5	-75	12.0910873413
25	-75	11.1098432541
25.5	-75	10.3350877762
26	-75	9.73655414581
26.5	-75	9.28464126587
27	-75	8.95198249817
27.5	-75	8.7144575119
28	-75	8.55093288422
28.5	-75	8.44403553009
29	-75	8.38047027588
29.5	-75	8.35018157959
30	-75	8.34618759155
30.5	-75	8.36400222778
31	-75	8.40047359467
31.5	-75	8.45447349548
32	-75	8.52580356598
32.5	-75	8.61503410339
33	-75	8.72428131104
33.5	-75	8.85631275177
34	-75	9.01428890228
34.5	-75	9.20051765442
35	-75	9.41574192047
35.5	-75	9.65871143341
36	-75	9.9250125885
36.5	-75	10.2067594528
37	-75	10.4919710159
37.5	-75	10.7658605576
38	-75	11.0125837326
38.5	-75	11.2158346176
39	-75	11.3596572876
39.5	-75	11.4308233261
40	-75	11.4194574356
40.5	-75	11.3193864822
41	-75	11.1280126572
41.5	-75	10.8468446732
42	-75	10.4818086624
42.5	-75	10.0420866013
43	-75	9.53999996185
43.5	-75	8.9904127121
44	-75	8.4098072052
44.5	-75	7.81612491608
45	-75	7.22690010071
45.5	-75	6.65792608261
46	-75	6.12397193909
46.5	-75	5.63651371002
47	-75	5.20357656479
47.5	-75	4.82963514328
48	-75	4.51583480835
48.5	-75	4.26064682007
49	-75	4.05976200104
49.5	-75	3.90761232376
50	-75	3.79759931564
50.5	-75	3.72280097008
51	-75	3.67646932602
51.5	-75	3.65175580978
52	-75	3.64283919334
52.5	-75	3.64492082596
53	-75	3.65474510193
53.5	-75	3.66851687431
54	-75	3.68458247185
54.5	-75	3.70214009285
55	-75	3.7209405899
55.5	-75	3.74102687836
56	-75	3.76258540154
56.5	-75	3.78553628922
57	-75	3.80965018272
57.5	-75	3.83431482315
58	-75	3.85868740082
58.5	-75	3.88183617592
59	-75	3.90294957161
59.5	-75	3.92145299911
60	-75	3.93780636787
60.5	-75	3.95229482651
61	-75	3.96631789207
61.5	-75	3.98199820518
62	-75	4.0019288063
62.5	-75	4.02932262421
63	-75	4.06753110886
63.5	-75	4.12016296387
64	-75	4.19058656693
64.5	-75	4.28170919418
65	-75	4.39573383331
65.5	-75	4.53397464752
66	-75	4.69646215439
66.5	-75	4.88157272339
67	-75	5.0861697197
67.5	-75	5.30500793457
68	-75	5.53205251694
68.5	-75	5.75944185257
69	-75	5.97859573364
69.5	-75	6.18084192276
70	-75	6.35827541351
70.5	-75	6.50439405441
71	-75	6.61484861374
71.5	-75	6.68768501282
72	-75	6.7234992981
72.5	-75	6.72523355484
73	-75	6.69796514511
73.5	-75	6.64835786819
74	-75	6.58418750763
74.5	-75	6.51373195648
75	-75	6.44534111023
75.5	-75	6.38743686676
76	-75	6.34805297852
76.5	-75	6.33453178406
77	-75	6.35286426544
77.5	-75	6.40750741959
78	-75	6.50087976456
78.5	-75	6.63300466537
79	-75	6.8015165329
79.5	-75	7.00167751312
80	-75	7.22668790817
80.5	-75	7.46823692322
81	-75	7.71730566025
81.5	-75	7.96498012543
82	-75	8.20310306549
82.5	-75	8.42496585846
83	-75	8.62537384033
83.5	-75	8.80062389374
84	-75	8.94824886322
84.5	-75	9.06650829315
85	-75	9.15400981903
85.5	-75	9.20946598053
86	-75	9.23143672943
86.5	-75	9.21853542328
87	-75	9.16979885101
87.5	-75	9.0850315094
88	-75	8.96524810791
88.5	-75	8.81282138824
89	-75	8.63150119781
89.5	-75	8.42639827728
90	-75	8.20386791229
90.5	-75	7.97119235992
91	-75	7.73631763458
91.5	-75	7.50754404068
92	-75	7.29317474365
92.5	-75	7.10135746002
93	-75	6.93974733353
93.5	-75	6.81532621384
94	-75	6.73384475708
94.5	-75	6.69984340668
95	-75	6.71620702744
95.5	-75	6.7840795517
96	-75	6.90301895142
96.5	-75	7.07112789154
97	-75	7.28527450562
97.5	-75	7.54111385345
98	-75	7.83345127106
98.5	-75	8.1562128067
99	-75	8.50281620026
99.5	-75	8.86645126343
100	-75	9.23994827271
100.5	-75	9.61605358124
101	-75	9.98771286011
101.5	-75	10.3481607437
102	-75	10.6910934448
102.5	-75	11.0108966827
103	-75	11.3026657104
103.5	-75	11.5622987747
104	-75	11.7862815857
104.5	-75	11.971531868
105	-75	12.11531353
105.5	-75	12.2151346207
106	-75	12.2689466476
106.5	-75	12.2752075195
107	-75	12.2332458496
107.5	-75	12.1434936523
108	-75	12.0075426102
108.5	-75	11.8281707764
109	-75	11.6092662811
109.5	-75	11.3555412292
110	-75	11.0727939606
110.5	-75	10.7676067352
111	-75	10.4468479156
111.5	-75	10.117102623
112	-75	9.7840681076
112.5	-75	9.45208740234
113	-75	9.12393951416
113.5	-75	8.80069541931
114	-75	8.48193359375
114.5	-75	8.16614055634
115	-75	7.85144853592
115.5	-75	7.53647184372
116	-75	7.22110080719
116.5	-75	6.90702438354
117	-75	6.59807348251
117.5	-75	6.29962158203
118	-75	6.01857662201
118.5	-75	5.76239204407
119	-75	5.53861570358
119.5	-75	5.35414123535
120	-75	5.21447944641
120.5	-75	5.12323713303
121	-75	5.08155632019
121.5	-75	5.0879034996
122	-75	5.13809776306
122.5	-75	5.22557353973
123	-75	5.34196138382
123.5	-75	5.47723770142
124	-75	5.62078666687
124.5	-75	5.76237916946
125	-75	5.89312839508
125.5	-75	6.00579929352
126	-75	6.09552097321
126.5	-75	6.159678936
127	-75	6.1979970932
127.5	-75	6.2119884491
128	-75	6.20480060577
128.5	-75	6.18056440353
129	-75	6.14397192001
129.5	-75	6.09998083115
130	-75	6.05328893661
130.5	-75	6.00799036026
131	-75	5.96747636795
131.5	-75	5.9337477684
132	-75	5.90751361847
132.5	-75	5.88788127899
133	-75	5.87292289734
133.5	-75	5.85973644257
134	-75	5.84504842758
134.5	-75	5.82549285889
135	-75	5.79827547073
135.5	-75	5.76138925552
136	-75	5.71392726898
136.5	-75	5.65605115891
137	-75	5.58897972107
137.5	-75	5.51464653015
138	-75	5.43542861938
138.5	-75	5.35381698608
139	-75	5.27196788788
139.5	-75	5.19164943695
140	-75	5.11403179169
140.5	-75	5.03980350494
141	-75	4.96939849854
141.5	-75	4.90314865112
142	-75	4.84146595001
142.5	-75	4.78504514694
143	-75	4.73498868942
143.5	-75	4.69270849228
144	-75	4.65987730026
144.5	-75	4.63814687729
145	-75	4.62905550003
145.5	-75	4.63368606567
146	-75	4.65265226364
146.5	-75	4.68568658829
147	-75	4.73188495636
147.5	-75	4.78968000412
148	-75	4.85702514648
148.5	-75	4.93152189255
149	-75	5.01053476334
149.5	-75	5.0914182663
150	-75	5.17161273956
150.5	-75	5.24860048294
151	-75	5.3199300766
151.5	-75	5.38334703445
152	-75	5.43641853333
152.5	-75	5.47667217255
153	-75	5.50164318085
153.5	-75	5.50940942764
154	-75	5.4966750145
154.5	-75	5.45994758606
155	-75	5.39898920059
155.5	-75	5.31070041656
156	-75	5.19597005844
156.5	-75	5.05588340759
157	-75	4.89191246033
157.5	-75	4.69943571091
158	-75	4.48038196564
158.5	-75	4.2353053093
159	-75	3.96553993225
159.5	-75	3.67393732071
160	-75	3.36498141289
160.5	-75	3.04624438286
161	-75	2.7279047966
161.5	-75	2.42116689682
162	-75	2.13679361343
162.5	-75	1.88424241543
163	-75	1.67023527622
163.5	-75	1.4979994297
223.5	-75	1.16855919361
224	-75	1.14917290211
224.5	-75	1.12542760372
225	-75	1.09776961803
225.5	-75	1.06740355492
226	-75	1.03560054302
226.5	-75	1.00366687775
227	-75	0.972991347313
227.5	-75	0.944904267788
228	-75	0.920571684837
228.5	-75	0.901408612728
229	-75	0.887926340103
229.5	-75	0.880944728851
230	-75	0.881344914436
230.5	-75	0.889331400394
231	-75	0.905027270317
231.5	-75	0.928453028202
232	-75	0.959277689457
232.5	-75	0.996859431267
233	-75	1.04020678997
233.5	-75	1.08848953247
234	-75	1.13922703266
234.5	-75	1.19085884094
235	-75	1.24135136604
235.5	-75	1.28864300251
236	-75	1.33140850067
236.5	-75	1.3682050705
237	-75	1.3977855444
237.5	-75	1.41881525517
238	-75	1.43115484715
238.5	-75	1.43620419502
239	-75	1.43272340298
239.5	-75	1.42244970798
240	-75	1.40631186962
240.5	-75	1.38605320454
241	-75	1.36291182041
241.5	-75	1.33904492855
242	-75	1.31500375271
242.5	-75	1.29191613197
243	-75	1.27066171169
243.5	-75	1.25178027153
244	-75	1.23559176922
244.5	-75	1.22205400467
245	-75	1.21162819862
245.5	-75	1.20386767387
246	-75	1.19760560989
246.5	-75	1.19463515282
247	-75	1.19382143021
247.5	-75	1.1951841116
248	-75	1.19886445999
248.5	-75	1.2046649456
249	-75	1.21282613277
249.5	-75	1.22352945805
250	-75	1.23638761044
250.5	-75	1.25095498562
252.5	-75	1.31286609173
253	-75	1.324903965
253.5	-75	1.33370149136
254	-75	1.33835315704
254.5	-75	1.33819270134
255	-75	1.33276951313
258.5	-75	1.16404485703
259	-75	1.13004934788
259.5	-75	1.09636950493
260	-75	1.06372618675
260.5	-75	1.03310072422
261	-75	1.004570961
261.5	-75	0.978700697422
262	-75	0.955952942371
262.5	-75	0.935953080654
263	-75	0.918581604958
263.5	-75	0.903420984745
264	-75	0.889914691448
264.5	-75	0.877346158028
265	-75	0.864933609962
265.5	-75	0.852118253708
266	-75	0.838387131691
266.5	-75	0.823599994183
267	-75	0.807927250862
267.5	-75	0.791682362556
268	-75	0.775299787521
268.5	-75	0.759327948093
269	-75	0.744406878948
269.5	-75	0.730941712856
270	-75	0.719245553017
270.5	-75	0.7096170187
271	-75	0.702035486698
271.5	-75	0.696384847164
272	-75	0.692578017712
272.5	-75	0.690435111523
273	-75	0.68985503912
273.5	-75	0.690373122692
274	-75	0.691922008991
274.5	-75	0.6944231987
275	-75	0.697147727013
275.5	-75	0.699748754501
276	-75	0.701737344265
276.5	-75	0.702772855759
277	-75	0.702410638332
277.5	-75	0.700372815132
278	-75	0.696515023708
278.5	-75	0.690972805023
279	-75	0.684006869793
279.5	-75	0.676202237606
280	-75	0.668098211288
280.5	-75	0.660382449627
281	-75	0.653893828392
281.5	-75	0.649301409721
282	-75	0.64718735218
282.5	-75	0.647877991199
283	-75	0.65145021677
283.5	-75	0.657797515392
284	-75	0.666412293911
284.5	-75	0.676730215549
285	-75	0.688079178333
285.5	-75	0.6997153759
286	-75	0.710990548134
286.5	-75	0.721375703812
287	-75	0.730652928352
287.5	-75	0.738711476326
288	-75	0.745677530766
288.5	-75	0.751894891262
289	-75	0.757705271244
289.5	-75	0.763520240784
290	-75	0.769710361958
290.5	-75	0.776628434658
291	-75	0.784503221512
291.5	-75	0.793596208096
292	-75	0.803997278214
292.5	-75	0.815788567066
293	-75	0.828966856003
293.5	-75	0.843334436417
294	-75	0.858637690544
294.5	-75	0.87454611063
295	-75	0.890641510487
295.5	-75	0.906526505947
296	-75	0.921847581863
296.5	-75	0.936450064182
297	-75	0.950323164463
297.5	-75	0.963717937469
298	-75	0.977079570293
298.5	-75	0.990979969501
299	-75	1.00603568554
335	-75	4.27658319473
335.5	-75	4.37135362625
336	-75	4.42465925217
336.5	-75	4.43874406815
337	-75	4.41839790344
337.5	-75	4.37109899521
338	-75	4.30583000183
338.5	-75	4.23125362396
339	-75	4.15463256836
339.5	-75	4.08189201355
340	-75	4.01845407486
340.5	-75	3.96788930893
341	-75	3.93224787712
341.5	-75	3.91268467903
342	-75	3.90893769264
342.5	-75	3.91973423958
343	-75	3.94389748573
343.5	-75	3.98014092445
344	-75	4.02700471878
344.5	-75	4.08279657364
345	-75	4.14616537094
345.5	-75	4.21459054947
346	-75	4.28569746017
346.5	-75	4.35671186447
347	-75	4.42456483841
347.5	-75	4.48594999313
348	-75	4.53740549088
348.5	-75	4.57490062714
349	-75	4.59584283829
349.5	-75	4.59777832031
350	-75	4.57904052734
350.5	-75	4.53886318207
351	-75	4.47744083405
351.5	-75	4.39596319199
352	-75	4.29646205902
352.5	-75	4.1810798645
353	-75	4.05310678482
353.5	-75	3.91666841507
354	-75	3.77241659164
354.5	-75	3.6240811348
355	-75	3.47283530235
355.5	-75	3.32083702087
356	-75	3.17021179199
356.5	-75	3.02163004875
357	-75	2.8768684864
357.5	-75	2.73756289482
358	-75	2.60569548607
358.5	-75	2.48356032372
359	-75	2.37351989746
359.5	-75	2.27804231644
0.5	-75.5	2.08727765083
1	-75.5	2.05907440186
1.5	-75.5	2.05166864395
2	-75.5	2.06785559654
2.5	-75.5	2.11000585556
3	-75.5	2.18634104729
3.5	-75.5	2.31275844574
4	-75.5	2.49951791763
4.5	-75.5	2.76435995102
5	-75.5	3.13268947601
5.5	-75.5	3.6346142292
6	-75.5	4.30530118942
6.5	-75.5	5.18635749817
7	-75.5	6.31598901749
7.5	-75.5	7.72717189789
8	-75.5	9.44386100769
8.5	-75.5	11.4723453522
9	-75.5	13.7976837158
9.5	-75.5	16.3846282959
10	-75.5	19.1746234894
10.5	-75.5	22.0981750488
11	-75.5	25.0801200867
11.5	-75.5	28.0423870087
12	-75.5	30.9104671478
12.5	-75.5	33.6160430908
13	-75.5	36.1008071899
13.5	-75.5	38.3164558411
14	-75.5	40.2238082886
14.5	-75.5	41.787902832
15	-75.5	42.975528717
15.5	-75.5	43.7592849731
16	-75.5	44.1191711426
16.5	-75.5	44.0381965637
17	-75.5	43.5101242065
17.5	-75.5	42.5497016907
18	-75.5	41.1806755066
18.5	-75.5	39.4397468567
19	-75.5	37.3818054199
19.5	-75.5	35.0701370239
20	-75.5	32.5776824951
20.5	-75.5	29.9823741913
21	-75.5	27.3595104218
21.5	-75.5	24.7806053162
22	-75.5	22.3085517883
22.5	-75.5	19.9966888428
23	-75.5	17.8851680756
23.5	-75.5	16.0004463196
24	-75.5	14.3556690216
24.5	-75.5	12.9534788132
25	-75.5	11.7864179611
25.5	-75.5	10.8405246735
26	-75.5	10.0966329575
26.5	-75.5	9.53349781036
27	-75.5	9.12880420685
27.5	-75.5	8.86151123047
28	-75.5	8.71105289459
28.5	-75.5	8.65986442566
29	-75.5	8.69165992737
29.5	-75.5	8.79276657104
30	-75.5	8.95179843903
30.5	-75.5	9.15832901001
31	-75.5	9.40465736389
31.5	-75.5	9.68418216705
32	-75.5	9.99090671539
32.5	-75.5	10.3203105927
33	-75.5	10.6694631577
33.5	-75.5	11.0355730057
34	-75.5	11.4166440964
34.5	-75.5	11.8109254837
35	-75.5	12.2148952484
35.5	-75.5	12.623456955
36	-75.5	13.0289897919
36.5	-75.5	13.421833992
37	-75.5	13.7894468307
37.5	-75.5	14.1177968979
38	-75.5	14.3920907974
38.5	-75.5	14.5974197388
39	-75.5	14.7215995789
39.5	-75.5	14.7541513443
40	-75.5	14.6875734329
40.5	-75.5	14.5176372528
41	-75.5	14.244055748
41.5	-75.5	13.8689222336
42	-75.5	13.3975982666
42.5	-75.5	12.8387365341
43	-75.5	12.2029628754
43.5	-75.5	11.5052452087
44	-75.5	10.7624874115
44.5	-75.5	9.9936914444
45	-75.5	9.21825695038
45.5	-75.5	8.45656585693
46	-75.5	7.72737646103
46.5	-75.5	7.04669857025
47	-75.5	6.42720317841
47.5	-75.5	5.87755441666
48	-75.5	5.40156698227
48.5	-75.5	4.99956846237
49	-75.5	4.66874456406
49.5	-75.5	4.40360355377
50	-75.5	4.19722604752
50.5	-75.5	4.04194164276
51	-75.5	3.93001246452
51.5	-75.5	3.8536567688
52	-75.5	3.80603504181
52.5	-75.5	3.78112649918
53	-75.5	3.77400517464
53.5	-75.5	3.78074455261
54	-75.5	3.79800343513
54.5	-75.5	3.82295680046
55	-75.5	3.85388565063
55.5	-75.5	3.88971018791
56	-75.5	3.9288995266
56.5	-75.5	3.97046613693
57	-75.5	4.01343202591
57.5	-75.5	4.05737113953
58	-75.5	4.10129117966
58.5	-75.5	4.1448559761
59	-75.5	4.18775415421
59.5	-75.5	4.23013496399
60	-75.5	4.27257156372
60.5	-75.5	4.31619167328
61	-75.5	4.3625535965
61.5	-75.5	4.41361474991
62	-75.5	4.4714179039
62.5	-75.5	4.5382900238
63	-75.5	4.61641073227
63.5	-75.5	4.70776414871
64	-75.5	4.81400346756
64.5	-75.5	4.93637704849
65	-75.5	5.07542419434
65.5	-75.5	5.23107481003
66	-75.5	5.40241146088
66.5	-75.5	5.58726882935
67	-75.5	5.78234863281
67.5	-75.5	5.9836564064
68	-75.5	6.18596172333
68.5	-75.5	6.38337564468
69	-75.5	6.56963682175
69.5	-75.5	6.73849058151
70	-75.5	6.88392305374
70.5	-75.5	7.00161170959
71	-75.5	7.08814668655
71.5	-75.5	7.14174127579
72	-75.5	7.16245365143
72.5	-75.5	7.15209817886
73	-75.5	7.11421251297
73.5	-75.5	7.05400657654
74	-75.5	6.97808885574
74.5	-75.5	6.89401531219
75	-75.5	6.80985498428
75.5	-75.5	6.7339220047
76	-75.5	6.67430686951
76.5	-75.5	6.63843822479
77	-75.5	6.6327548027
77.5	-75.5	6.6623711586
78	-75.5	6.73063182831
78.5	-75.5	6.83891153336
79	-75.5	6.9864821434
79.5	-75.5	7.17034482956
80	-75.5	7.38558197021
80.5	-75.5	7.62561750412
81	-75.5	7.88251066208
81.5	-75.5	8.1478433609
82	-75.5	8.41285991669
82.5	-75.5	8.66909694672
83	-75.5	8.9086894989
83.5	-75.5	9.12448406219
84	-75.5	9.310338974
84.5	-75.5	9.46099948883
85	-75.5	9.57214641571
85.5	-75.5	9.64051246643
86	-75.5	9.66397190094
86.5	-75.5	9.6418056488
87	-75.5	9.57487392426
87.5	-75.5	9.46575927734
88	-75.5	9.31875228882
88.5	-75.5	9.13969516754
89	-75.5	8.9358587265
89.5	-75.5	8.71571540833
90	-75.5	8.48857975006
90.5	-75.5	8.26402282715
91	-75.5	8.05157470703
91.5	-75.5	7.86042308807
92	-75.5	7.69909334183
92.5	-75.5	7.57533931732
93	-75.5	7.49559593201
93.5	-75.5	7.46472406387
94	-75.5	7.48591852188
94.5	-75.5	7.56040143967
95	-75.5	7.68745040894
95.5	-75.5	7.86444807053
96	-75.5	8.08683681488
96.5	-75.5	8.34855556488
97	-75.5	8.64248561859
97.5	-75.5	8.96076583862
98	-75.5	9.29525566101
98.5	-75.5	9.63794231415
99	-75.5	9.98114109039
99.5	-75.5	10.3175992966
100	-75.5	10.640996933
100.5	-75.5	10.945854187
101	-75.5	11.2275743484
101.5	-75.5	11.4824485779
102	-75.5	11.7075662613
102.5	-75.5	11.9005241394
103	-75.5	12.0594348907
103.5	-75.5	12.1824712753
104	-75.5	12.2679862976
104.5	-75.5	12.3141918182
105	-75.5	12.3193855286
105.5	-75.5	12.2819662094
106	-75.5	12.2008829117
106.5	-75.5	12.0760097504
107	-75.5	11.9084215164
107.5	-75.5	11.7006721497
108	-75.5	11.4568881989
108.5	-75.5	11.1825876236
109	-75.5	10.8842544556
109.5	-75.5	10.5691766739
110	-75.5	10.2448215485
110.5	-75.5	9.91797447205
111	-75.5	9.59450721741
111.5	-75.5	9.27864170074
112	-75.5	8.97276496887
112.5	-75.5	8.6773223877
113	-75.5	8.39109420776
113.5	-75.5	8.11162948608
114	-75.5	7.83624458313
114.5	-75.5	7.56243801117
115	-75.5	7.2887005806
115.5	-75.5	7.01494407654
116	-75.5	6.74288082123
116.5	-75.5	6.47609424591
117	-75.5	6.21968221664
117.5	-75.5	5.97937774658
118	-75.5	5.76131486893
118.5	-75.5	5.57090139389
119	-75.5	5.41251897812
119.5	-75.5	5.28910684586
120	-75.5	5.2020149231
120.5	-75.5	5.15127229691
121	-75.5	5.13542556763
121.5	-75.5	5.15177869797
122	-75.5	5.1964058876
122.5	-75.5	5.26447582245
123	-75.5	5.35048389435
123.5	-75.5	5.44840478897
124	-75.5	5.55184650421
124.5	-75.5	5.65450954437
125	-75.5	5.75079727173
125.5	-75.5	5.83591508865
126	-75.5	5.90624094009
126.5	-75.5	5.95953083038
127	-75.5	5.99495649338
127.5	-75.5	6.01298236847
128	-75.5	6.01541996002
128.5	-75.5	6.00519275665
129	-75.5	5.98604536057
129.5	-75.5	5.96220636368
130	-75.5	5.93820524216
130.5	-75.5	5.91825151443
131	-75.5	5.9059548378
131.5	-75.5	5.90373182297
132	-75.5	5.91277980804
132.5	-75.5	5.932700634
133	-75.5	5.96178197861
133.5	-75.5	5.99706745148
134	-75.5	6.03471517563
134.5	-75.5	6.07040214539
135	-75.5	6.09980249405
135.5	-75.5	6.11905431747
136	-75.5	6.12511491776
136.5	-75.5	6.11614131927
137	-75.5	6.09154891968
137.5	-75.5	6.05197286606
138	-75.5	5.9990644455
138.5	-75.5	5.93535709381
139	-75.5	5.86376714706
139.5	-75.5	5.78743314743
140	-75.5	5.70929288864
140.5	-75.5	5.63203907013
141	-75.5	5.55793857574
141.5	-75.5	5.48894691467
142	-75.5	5.42667913437
142.5	-75.5	5.3726234436
143	-75.5	5.32812023163
143.5	-75.5	5.29440975189
144	-75.5	5.27281856537
144.5	-75.5	5.26438522339
145	-75.5	5.2701010704
145.5	-75.5	5.2903470993
146	-75.5	5.32511520386
146.5	-75.5	5.37378740311
147	-75.5	5.43498706818
147.5	-75.5	5.50687074661
148	-75.5	5.58694410324
148.5	-75.5	5.67225027084
149	-75.5	5.75933027267
149.5	-75.5	5.84448957443
150	-75.5	5.92390680313
150.5	-75.5	5.99391555786
151	-75.5	6.05091667175
151.5	-75.5	6.0914773941
152	-75.5	6.11252880096
152.5	-75.5	6.11143302917
153	-75.5	6.08630132675
153.5	-75.5	6.03598070145
154	-75.5	5.96048545837
154.5	-75.5	5.85889816284
155	-75.5	5.73067617416
155.5	-75.5	5.57912969589
156	-75.5	5.40875148773
156.5	-75.5	5.21924161911
157	-75.5	5.01255702972
157.5	-75.5	4.78929758072
158	-75.5	4.54959154129
158.5	-75.5	4.29276847839
159	-75.5	4.01852178574
159.5	-75.5	3.72757172585
160	-75.5	3.4225320816
160.5	-75.5	3.10906815529
161	-75.5	2.79526948929
161.5	-75.5	2.49079942703
162	-75.5	2.20507979393
162.5	-75.5	1.94738078117
163	-75.5	1.72497045994
164	-75.5	1.39782047272
164.5	-75.5	1.29119110107
165	-75.5	1.22035646439
165.5	-75.5	1.17683577538
214.5	-75.5	1.29301595688
215	-75.5	1.31393492222
215.5	-75.5	1.33096325397
216	-75.5	1.34357845783
216.5	-75.5	1.35175192356
217	-75.5	1.35580968857
217.5	-75.5	1.35642063618
218	-75.5	1.35441839695
218.5	-75.5	1.35059165955
219.5	-75.5	1.33975791931
220	-75.5	1.33451783657
220.5	-75.5	1.32534837723
221	-75.5	1.31299102306
221.5	-75.5	1.29658198357
222	-75.5	1.27517783642
222.5	-75.5	1.24832439423
223	-75.5	1.21627962589
223.5	-75.5	1.17925071716
224	-75.5	1.1379956007
224.5	-75.5	1.09413230419
225	-75.5	1.04928076267
225.5	-75.5	1.00506722927
226	-75.5	0.963059663773
226.5	-75.5	0.924575567245
227	-75.5	0.890520691872
227.5	-75.5	0.862042367458
228	-75.5	0.838915288448
228.5	-75.5	0.820416510105
229	-75.5	0.81040263176
229.5	-75.5	0.806553840637
230	-75.5	0.8087926507
230.5	-75.5	0.81744402647
231	-75.5	0.833167850971
231.5	-75.5	0.855603992939
232	-75.5	0.884869158268
232.5	-75.5	0.920959234238
233	-75.5	0.963009297848
233.5	-75.5	1.00992560387
234	-75.5	1.06019389629
234.5	-75.5	1.11217606068
235	-75.5	1.16332685947
235.5	-75.5	1.21139085293
236	-75.5	1.25524866581
236.5	-75.5	1.29136180878
237	-75.5	1.31899905205
237.5	-75.5	1.33707344532
238	-75.5	1.3447239399
238.5	-75.5	1.34241700172
239	-75.5	1.33091199398
239.5	-75.5	1.31127011776
240	-75.5	1.28529083729
240.5	-75.5	1.25498306751
241	-75.5	1.22211039066
241.5	-75.5	1.18911218643
242	-75.5	1.1575139761
242.5	-75.5	1.12906181812
243	-75.5	1.10434556007
243.5	-75.5	1.08400177956
244	-75.5	1.06905472279
244.5	-75.5	1.0591647625
245	-75.5	1.05419397354
245.5	-75.5	1.05372226238
246	-75.5	1.05736649036
246.5	-75.5	1.06457722187
247	-75.5	1.07478737831
247.5	-75.5	1.08828747272
248	-75.5	1.10448455811
248.5	-75.5	1.1224848032
249	-75.5	1.14366030693
249.5	-75.5	1.1669434309
250	-75.5	1.19200778008
250.5	-75.5	1.21828603745
251	-75.5	1.24457323551
251.5	-75.5	1.27036416531
252	-75.5	1.29440712929
252.5	-75.5	1.31514561176
253	-75.5	1.33113956451
253.5	-75.5	1.34111106396
254	-75.5	1.34402561188
254.5	-75.5	1.33925533295
255	-75.5	1.32663190365
255.5	-75.5	1.30659019947
256	-75.5	1.27999782562
256.5	-75.5	1.24823343754
257	-75.5	1.21283733845
257.5	-75.5	1.17542254925
258	-75.5	1.13760697842
258.5	-75.5	1.10088825226
259	-75.5	1.06641852856
259.5	-75.5	1.03506135941
260	-75.5	1.00755560398
260.5	-75.5	0.983771324158
261	-75.5	0.963952064514
261.5	-75.5	0.947649300098
262	-75.5	0.934621214867
262.5	-75.5	0.924307763577
263	-75.5	0.916112959385
263.5	-75.5	0.9092669487
264	-75.5	0.902906239033
264.5	-75.5	0.896130204201
265	-75.5	0.888239860535
265.5	-75.5	0.878480017185
266	-75.5	0.866315305233
266.5	-75.5	0.851530253887
267	-75.5	0.834079563618
267.5	-75.5	0.814383685589
268	-75.5	0.793248832226
268.5	-75.5	0.771432876587
269	-75.5	0.749813437462
269.5	-75.5	0.729466974735
270	-75.5	0.711210787296
270.5	-75.5	0.69564563036
271	-75.5	0.683205842972
271.5	-75.5	0.674063384533
272	-75.5	0.668140172958
272.5	-75.5	0.665135085583
273	-75.5	0.664727389812
273.5	-75.5	0.666444301605
274	-75.5	0.669566214085
274.5	-75.5	0.673210144043
275	-75.5	0.677356302738
275.5	-75.5	0.680944859982
276	-75.5	0.683394014835
276.5	-75.5	0.684279978275
277	-75.5	0.683393061161
277.5	-75.5	0.680789113045
278	-75.5	0.676568686962
278.5	-75.5	0.671069681644
279	-75.5	0.664828121662
279.5	-75.5	0.658543527126
280	-75.5	0.653041899204
280.5	-75.5	0.649059057236
281	-75.5	0.647419214249
281.5	-75.5	0.64871442318
282	-75.5	0.653437256813
282.5	-75.5	0.661749243736
283	-75.5	0.673427820206
283.5	-75.5	0.687945604324
284	-75.5	0.704559385777
284.5	-75.5	0.722310602665
285	-75.5	0.740204334259
285.5	-75.5	0.757317245007
286	-75.5	0.772908627987
286.5	-75.5	0.78650444746
287	-75.5	0.797959148884
287.5	-75.5	0.807449400425
288	-75.5	0.815402328968
288.5	-75.5	0.82236135006
289	-75.5	0.828884959221
289.5	-75.5	0.835479915142
290	-75.5	0.842549681664
290.5	-75.5	0.850324869156
291	-75.5	0.858833014965
291.5	-75.5	0.868088781834
292	-75.5	0.877885103226
292.5	-75.5	0.888039410114
293	-75.5	0.898293733597
293.5	-75.5	0.908412218094
294	-75.5	0.918230235577
294.5	-75.5	0.927526772022
295	-75.5	0.936300218105
295.5	-75.5	0.944582045078
296	-75.5	0.952520012856
296.5	-75.5	0.960449576378
297	-75.5	0.968818604946
297.5	-75.5	0.978154838085
298	-75.5	0.989103496075
298.5	-75.5	1.00226306915
299	-75.5	1.01819384098
299.5	-75.5	1.03737545013
300	-75.5	1.06016647816
300.5	-75.5	1.08676350117
301	-75.5	1.1172324419
301.5	-75.5	1.15142667294
333	-75.5	4.00831985474
333.5	-75.5	4.28491067886
334	-75.5	4.53431844711
334.5	-75.5	4.74462032318
335	-75.5	4.90694141388
335.5	-75.5	5.01695585251
336	-75.5	5.07436180115
336.5	-75.5	5.08293247223
337	-75.5	5.0493812561
337.5	-75.5	4.98307943344
338	-75.5	4.89491891861
338.5	-75.5	4.79482269287
339	-75.5	4.69140577316
339.5	-75.5	4.59106683731
340	-75.5	4.49850225449
340.5	-75.5	4.41656970978
341	-75.5	4.34708452225
341.5	-75.5	4.29027223587
342	-75.5	4.24544477463
342.5	-75.5	4.21139335632
343	-75.5	4.18630313873
343.5	-75.5	4.1687541008
344	-75.5	4.15733528137
344.5	-75.5	4.1509013176
345	-75.5	4.14823675156
345.5	-75.5	4.14819669724
346	-75.5	4.14953613281
346.5	-75.5	4.15083646774
347	-75.5	4.15063428879
347.5	-75.5	4.14740037918
348	-75.5	4.13946914673
348.5	-75.5	4.12521886826
349	-75.5	4.10310029984
349.5	-75.5	4.07191514969
350	-75.5	4.03075742722
350.5	-75.5	3.97916078568
351	-75.5	3.9170768261
351.5	-75.5	3.84497070312
352	-75.5	3.76332736015
352.5	-75.5	3.67311644554
353	-75.5	3.57577252388
353.5	-75.5	3.47278857231
354	-75.5	3.36449790001
354.5	-75.5	3.25268268585
355	-75.5	3.13808894157
355.5	-75.5	3.02199554443
356	-75.5	2.90536856651
356.5	-75.5	2.78969478607
357	-75.5	2.67615962029
357.5	-75.5	2.56617164612
358	-75.5	2.46130275726
358.5	-75.5	2.36344313622
359	-75.5	2.27473759651
359.5	-75.5	2.19749307632
0.5	-76	2.34230685234
1	-76	2.28673887253
1.5	-76	2.2498664856
2	-76	2.23667788506
2.5	-76	2.25291872025
3	-76	2.31214547157
3.5	-76	2.42744779587
4	-76	2.61583423615
4.5	-76	2.8999209404
5	-76	3.30478334427
5.5	-76	3.86300086975
6	-76	4.61341762543
6.5	-76	5.59549760818
7	-76	6.84271144867
7.5	-76	8.38282680511
8	-76	10.2299585342
8.5	-76	12.3713598251
9	-76	14.7747020721
9.5	-76	17.3852710724
10	-76	20.1338672638
10.5	-76	22.9385757446
11	-76	25.7127571106
11.5	-76	28.3757572174
12	-76	30.8579292297
12.5	-76	33.1078567505
13	-76	35.0900268555
13.5	-76	36.7861709595
14	-76	38.1890716553
14.5	-76	39.3001861572
15	-76	40.1223182678
15.5	-76	40.6569976807
16	-76	40.9046516418
16.5	-76	40.8659896851
17	-76	40.5344352722
17.5	-76	39.9025497437
18	-76	38.9860801697
18.5	-76	37.8021125793
19	-76	36.3685569763
19.5	-76	34.7122840881
20	-76	32.8664054871
20.5	-76	30.8718605042
21	-76	28.7746276855
21.5	-76	26.6244564056
22	-76	24.4714775085
22.5	-76	22.3643016815
23	-76	20.3466129303
23.5	-76	18.455083847
24	-76	16.7182216644
24.5	-76	15.1569013596
25	-76	13.783405304
25.5	-76	12.6024599075
26	-76	11.6131238937
26.5	-76	10.8100814819
27	-76	10.183588028
27.5	-76	9.72154331207
28	-76	9.41199398041
28.5	-76	9.24194526672
29	-76	9.19976615906
29.5	-76	9.27427482605
30	-76	9.45532608032
30.5	-76	9.73344898224
31	-76	10.0993461609
31.5	-76	10.543469429
32	-76	11.0558929443
32.5	-76	11.6255216599
33	-76	12.2407951355
33.5	-76	12.8901453018
34	-76	13.5595397949
34.5	-76	14.2347364426
35	-76	14.9001197815
35.5	-76	15.5396356583
36	-76	16.1365222931
36.5	-76	16.6738452911
37	-76	17.135219574
37.5	-76	17.5060138702
38	-76	17.7727775574
38.5	-76	17.9259128571
39	-76	17.9592037201
39.5	-76	17.8712711334
40	-76	17.6637763977
40.5	-76	17.3411254883
41	-76	16.9107704163
41.5	-76	16.3813419342
42	-76	15.7623224258
42.5	-76	15.0652780533
43	-76	14.3016052246
43.5	-76	13.484995842
44	-76	12.6300420761
44.5	-76	11.7522735596
45	-76	10.8692245483
45.5	-76	9.9986743927
46	-76	9.15732765198
46.5	-76	8.3605632782
47	-76	7.62116670609
47.5	-76	6.94915676117
48	-76	6.35094070435
48.5	-76	5.82911491394
49	-76	5.38342189789
49.5	-76	5.01090955734
50	-76	4.70694208145
50.5	-76	4.4651594162
51	-76	4.27863168716
51.5	-76	4.14036226273
52	-76	4.04329490662
52.5	-76	3.98113036156
53	-76	3.94781661034
53.5	-76	3.93743014336
54	-76	3.94534683228
54.5	-76	3.96805548668
55	-76	4.00202989578
55.5	-76	4.04515028
56	-76	4.09479856491
56.5	-76	4.15040016174
57	-76	4.20976400375
57.5	-76	4.27220678329
58	-76	4.33735466003
58.5	-76	4.40527200699
59	-76	4.47648429871
59.5	-76	4.55176782608
60	-76	4.63223409653
60.5	-76	4.71920967102
61	-76	4.8139872551
61.5	-76	4.91791629791
62	-76	5.03198385239
62.5	-76	5.15703868866
63	-76	5.29337215424
63.5	-76	5.44112157822
64	-76	5.59989070892
64.5	-76	5.76902389526
65	-76	5.94755601883
65.5	-76	6.13412952423
66	-76	6.32712221146
66.5	-76	6.52436208725
67	-76	6.72327041626
67.5	-76	6.92078399658
68	-76	7.11331033707
68.5	-76	7.29683351517
69	-76	7.46698331833
69.5	-76	7.61979198456
70	-76	7.7512793541
70.5	-76	7.85795211792
71	-76	7.93692159653
71.5	-76	7.98699235916
72	-76	8.00786018372
72.5	-76	8.00064563751
73	-76	7.96794509888
73.5	-76	7.91373157501
74	-76	7.84333562851
74.5	-76	7.76309013367
75	-76	7.68000173569
75.5	-76	7.60143327713
76	-76	7.53466892242
76.5	-76	7.48678255081
77	-76	7.46406173706
77.5	-76	7.47165155411
78	-76	7.51338291168
78.5	-76	7.5915055275
79	-76	7.706615448
79.5	-76	7.8577003479
80	-76	8.04199695587
80.5	-76	8.25511455536
81	-76	8.49121856689
81.5	-76	8.74318218231
82	-76	9.00304794312
82.5	-76	9.26235675812
83	-76	9.5123052597
83.5	-76	9.74428081512
84	-76	9.95013999939
84.5	-76	10.1223621368
85	-76	10.2546739578
85.5	-76	10.3420877457
86	-76	10.3813333511
86.5	-76	10.3710889816
87	-76	10.3120517731
87.5	-76	10.2072477341
88	-76	10.0618934631
88.5	-76	9.88332080841
89	-76	9.68077659607
89.5	-76	9.46509552002
90	-76	9.24807357788
90.5	-76	9.04193973541
91	-76	8.85867214203
91.5	-76	8.70936393738
92	-76	8.60390377045
92.5	-76	8.55022907257
93	-76	8.5539226532
93.5	-76	8.61774158478
94	-76	8.7412481308
94.5	-76	8.92113399506
95	-76	9.15113735199
95.5	-76	9.42255306244
96	-76	9.72488880157
96.5	-76	10.0464172363
97	-76	10.3749828339
97.5	-76	10.698597908
98	-76	11.0065078735
98.5	-76	11.2895345688
99	-76	11.5404205322
99.5	-76	11.7541694641
100	-76	11.9278249741
100.5	-76	12.0602684021
101	-76	12.1518821716
101.5	-76	12.2041196823
102	-76	12.2193145752
102.5	-76	12.1999101639
103	-76	12.1481838226
103.5	-76	12.0661201477
104	-76	11.955373764
104.5	-76	11.8171901703
105	-76	11.6526460648
105.5	-76	11.4626760483
106	-76	11.2485694885
106.5	-76	11.0121707916
107	-76	10.7563371658
107.5	-76	10.4848175049
108	-76	10.2021617889
108.5	-76	9.91314315796
109	-76	9.6226272583
109.5	-76	9.3347826004
110	-76	9.05323696136
110.5	-76	8.78083229065
111	-76	8.51899051666
111.5	-76	8.26784801483
112	-76	8.02648830414
112.5	-76	7.79316329956
113	-76	7.5658493042
113.5	-76	7.34257936478
114	-76	7.12195444107
114.5	-76	6.90344333649
115	-76	6.6877579689
115.5	-76	6.47657203674
116	-76	6.27287054062
116.5	-76	6.08038425446
117	-76	5.90316867828
117.5	-76	5.74490213394
118	-76	5.60847663879
118.5	-76	5.49578285217
119	-76	5.40774345398
119.5	-76	5.34435129166
120	-76	5.30481624603
120.5	-76	5.28770017624
121	-76	5.29109382629
121.5	-76	5.31281328201
122	-76	5.35066366196
122.5	-76	5.40224552155
123	-76	5.46492576599
123.5	-76	5.5354142189
124	-76	5.61028766632
124.5	-76	5.68620157242
125	-76	5.75994300842
125.5	-76	5.82835292816
126	-76	5.88863182068
126.5	-76	5.93850564957
127	-76	5.97633218765
127.5	-76	6.00145244598
128	-76	6.01442575455
128.5	-76	6.01691102982
129	-76	6.01158571243
129.5	-76	6.00201129913
130	-76	5.99242639542
130.5	-76	5.98732948303
131	-76	5.99096870422
131.5	-76	6.0069103241
132	-76	6.03762722015
132.5	-76	6.08422517776
133	-76	6.14602708817
133.5	-76	6.22079086304
134	-76	6.30475997925
134.5	-76	6.39288663864
135	-76	6.47940015793
135.5	-76	6.55833673477
136	-76	6.62412071228
136.5	-76	6.67204236984
137	-76	6.69876480103
137.5	-76	6.7025475502
138	-76	6.68345069885
138.5	-76	6.64332199097
139	-76	6.58526182175
139.5	-76	6.51350259781
140	-76	6.43295145035
140.5	-76	6.34856891632
141	-76	6.26524686813
141.5	-76	6.18748283386
142	-76	6.11910009384
142.5	-76	6.06323337555
143	-76	6.02233886719
143.5	-76	5.99831342697
144	-76	5.99235534668
144.5	-76	6.00529432297
145	-76	6.03724718094
145.5	-76	6.08782720566
146	-76	6.15596199036
146.5	-76	6.23995399475
147	-76	6.33740615845
147.5	-76	6.44525432587
148	-76	6.55982780457
148.5	-76	6.67692613602
149	-76	6.79163789749
149.5	-76	6.89871692657
150	-76	6.99274253845
150.5	-76	7.06844854355
151	-76	7.12102222443
151.5	-76	7.14628696442
152	-76	7.14061689377
152.5	-76	7.10141992569
153	-76	7.02786397934
153.5	-76	6.92307472229
154	-76	6.7850189209
154.5	-76	6.61395692825
155	-76	6.41603851318
155.5	-76	6.19675111771
156	-76	5.95754814148
156.5	-76	5.70428848267
157	-76	5.43888568878
157.5	-76	5.16230535507
158	-76	4.87499475479
158.5	-76	4.57653331757
159	-76	4.26641511917
159.5	-76	3.94478273392
160	-76	3.61352062225
160.5	-76	3.27718400955
161	-76	2.9427921772
161.5	-76	2.61872172356
162	-76	2.31384754181
162.5	-76	2.03681087494
212	-76	1.35402750969
212.5	-76	1.38105773926
213	-76	1.40792644024
213.5	-76	1.43347489834
214	-76	1.45664453506
214.5	-76	1.47639000416
215	-76	1.49191582203
215.5	-76	1.50283312798
216	-76	1.50922489166
216.5	-76	1.5112452507
217	-76	1.50954914093
217.5	-76	1.50545942783
218	-76	1.50122201443
218.5	-76	1.49333059788
219	-76	1.48470699787
219.5	-76	1.47296893597
220	-76	1.45873785019
220.5	-76	1.44089782238
221	-76	1.41849136353
221.5	-76	1.39072859287
222	-76	1.35701215267
222.5	-76	1.31745541096
223	-76	1.27224624157
223.5	-76	1.22204208374
224	-76	1.16842246056
224.5	-76	1.11288738251
225	-76	1.05741274357
225.5	-76	1.00381267071
226	-76	0.953574299812
226.5	-76	0.908576369286
227	-76	0.869345605373
227.5	-76	0.83509606123
228	-76	0.80848377943
228.5	-76	0.787588894367
229	-76	0.772355318069
229.5	-76	0.76246535778
230	-76	0.757925033569
230.5	-76	0.756814658642
231	-76	0.763911247253
231.5	-76	0.776294052601
232	-76	0.793980062008
232.5	-76	0.817233741283
233	-76	0.845788121223
233.5	-76	0.879436910152
234	-76	0.916541337967
234.5	-76	0.955761551857
235	-76	0.996372044086
235.5	-76	1.03499400616
236	-76	1.07016515732
236.5	-76	1.09994828701
237	-76	1.12250351906
237.5	-76	1.13727331161
238	-76	1.14367616177
238.5	-76	1.14120745659
239	-76	1.13047063351
239.5	-76	1.11256730556
240	-76	1.08894276619
240.5	-76	1.06163656712
241	-76	1.03198945522
241.5	-76	1.00165116787
242	-76	0.972769796848
242.5	-76	0.946838378906
243	-76	0.924955964088
243.5	-76	0.908725202084
244	-76	0.897750020027
244.5	-76	0.892528951168
245	-76	0.893794119358
245.5	-76	0.901100635529
246	-76	0.914111495018
246.5	-76	0.932414650917
247	-76	0.955549538136
247.5	-76	0.983042180538
248	-76	1.01434063911
248.5	-76	1.04920494556
249	-76	1.08657860756
249.5	-76	1.12500476837
250	-76	1.16506147385
250.5	-76	1.20473504066
251	-76	1.24275672436
251.5	-76	1.27792215347
252	-76	1.30796730518
252.5	-76	1.33246171474
253	-76	1.3495824337
253.5	-76	1.35861957073
254	-76	1.35861110687
254.5	-76	1.34947824478
255	-76	1.33173632622
255.5	-76	1.3065186739
256	-76	1.27522301674
256.5	-76	1.23971736431
257	-76	1.20191395283
257.5	-76	1.16365838051
258	-76	1.12664067745
258.5	-76	1.09239494801
259	-76	1.06170737743
259.5	-76	1.03511846066
260	-76	1.01285016537
260.5	-76	0.995548129082
261	-76	0.981989145279
261.5	-76	0.972062766552
262	-76	0.965094029903
262.5	-76	0.960597157478
263	-76	0.957885622978
263.5	-76	0.956216752529
264	-76	0.954688727856
264.5	-76	0.952518463135
265	-76	0.94871789217
265.5	-76	0.942597866058
266	-76	0.933434069157
266.5	-76	0.920905590057
267	-76	0.904916644096
267.5	-76	0.885807096958
268	-76	0.86414462328
268.5	-76	0.840663015842
269	-76	0.816294789314
269.5	-76	0.792058467865
270	-76	0.768960833549
270.5	-76	0.747743904591
271	-76	0.72913724184
271.5	-76	0.71366661787
272	-76	0.701356291771
272.5	-76	0.692234873772
273	-76	0.686003446579
273.5	-76	0.682264506817
274	-76	0.680169284344
274.5	-76	0.679660737514
275	-76	0.679504215717
275.5	-76	0.679543077946
276	-76	0.679046630859
276.5	-76	0.67777043581
277	-76	0.675622940063
277.5	-76	0.672707736492
278	-76	0.669401049614
278.5	-76	0.666150331497
279	-76	0.663513720036
279.5	-76	0.662225425243
280	-76	0.662809491158
280.5	-76	0.665835082531
281	-76	0.671878635883
281.5	-76	0.681271851063
282	-76	0.693964958191
282.5	-76	0.709784448147
283	-76	0.728215813637
283.5	-76	0.748412549496
284	-76	0.769295811653
284.5	-76	0.789849042892
285	-76	0.809073209763
285.5	-76	0.826155006886
286	-76	0.840621173382
286.5	-76	0.852277040482
287	-76	0.861341536045
287.5	-76	0.868196129799
288	-76	0.873476445675
288.5	-76	0.877825796604
289	-76	0.881851375103
289.5	-76	0.886109530926
290	-76	0.890856862068
290.5	-76	0.896228909492
291	-76	0.902171909809
291.5	-76	0.908476769924
292	-76	0.914939820766
292.5	-76	0.921379089355
293	-76	0.92765134573
293.5	-76	0.933585643768
294	-76	0.93917965889
294.5	-76	0.944498419762
295	-76	0.949690937996
295.5	-76	0.955074191093
296	-76	0.961049675941
296.5	-76	0.968164741993
297	-76	0.977008283138
297.5	-76	0.988184630871
298	-76	1.00224757195
298.5	-76	1.01973676682
299	-76	1.04113471508
299.5	-76	1.06674826145
300	-76	1.09685635567
300.5	-76	1.13150596619
301	-76	1.17064654827
301.5	-76	1.21413302422
302	-76	1.26163947582
302.5	-76	1.31262326241
303	-76	1.36641430855
303.5	-76	1.4221881628
304	-76	1.47900044918
333.5	-76	6.65308332443
334	-76	6.80396747589
334.5	-76	6.90956926346
335	-76	6.96533870697
335.5	-76	6.97015476227
336	-76	6.92698335648
336.5	-76	6.84198856354
337	-76	6.72400188446
337.5	-76	6.58327484131
338	-76	6.42967271805
338.5	-76	6.27141189575
339	-76	6.11484527588
339.5	-76	5.9646396637
340	-76	5.82371044159
340.5	-76	5.69233512878
341	-76	5.56986761093
341.5	-76	5.45587205887
342	-76	5.34886455536
342.5	-76	5.2466711998
343	-76	5.14847707748
343.5	-76	5.05361223221
344	-76	4.96214294434
344.5	-76	4.87439775467
345	-76	4.7909078598
345.5	-76	4.71210575104
346	-76	4.63816642761
346.5	-76	4.56918430328
347	-76	4.5049405098
347.5	-76	4.44485712051
348	-76	4.38819313049
348.5	-76	4.33398580551
349	-76	4.28104162216
349.5	-76	4.22786903381
350	-76	4.17314004898
350.5	-76	4.11564970016
351	-76	4.05412054062
351.5	-76	3.98812460899
352	-76	3.91725277901
352.5	-76	3.84133315086
353	-76	3.76103806496
353.5	-76	3.67653751373
354	-76	3.58749961853
354.5	-76	3.49527406693
355	-76	3.39974236488
355.5	-76	3.30151939392
356	-76	3.20093917847
356.5	-76	3.09885334969
357	-76	2.99547243118
357.5	-76	2.8915977478
358	-76	2.78820061684
358.5	-76	2.68655085564
359	-76	2.58844995499
359.5	-76	2.49654603004
0.5	-76.5	2.84819889069
1	-76.5	2.73393964767
1.5	-76.5	2.63876724243
2	-76.5	2.56754207611
2.5	-76.5	2.5287733078
3	-76.5	2.53973007202
3.5	-76.5	2.60907745361
4	-76.5	2.75344777107
4.5	-76.5	2.99527168274
5	-76.5	3.35759925842
5.5	-76.5	3.86966967583
6	-76.5	4.56351709366
6.5	-76.5	5.4725856781
7	-76.5	6.62709712982
7.5	-76.5	8.04863643646
8	-76.5	9.74915981293
8.5	-76.5	11.7230863571
9	-76.5	13.9411315918
9.5	-76.5	16.3571739197
10	-76.5	18.9072990417
10.5	-76.5	21.5154781342
11	-76.5	24.1020526886
11.5	-76.5	26.5898094177
12	-76.5	28.9106235504
12.5	-76.5	31.010597229
13	-76.5	32.8522872925
13.5	-76.5	34.4149208069
14	-76.5	35.6912689209
14.5	-76.5	36.6873474121
15	-76.5	37.4132957458
15.5	-76.5	37.8813285828
16	-76.5	38.1094779968
16.5	-76.5	38.1108016968
17	-76.5	37.8959884644
17.5	-76.5	37.4768600464
18	-76.5	36.8640594482
18.5	-76.5	36.0643844604
19	-76.5	35.0884513855
19.5	-76.5	33.9484329224
20	-76.5	32.6584091187
20.5	-76.5	31.2354602814
21	-76.5	29.6999416351
21.5	-76.5	28.0766067505
22	-76.5	26.3930072784
22.5	-76.5	24.6795101166
23	-76.5	22.9670410156
23.5	-76.5	21.2865962982
24	-76.5	19.666639328
24.5	-76.5	18.1330604553
25	-76.5	16.708147049
25.5	-76.5	15.4098014832
26	-76.5	14.2520647049
26.5	-76.5	13.2453165054
27	-76.5	12.3952054977
27.5	-76.5	11.7057571411
28	-76.5	11.1778593063
28.5	-76.5	10.8106651306
29	-76.5	10.6017513275
29.5	-76.5	10.5480661392
30	-76.5	10.6455583572
30.5	-76.5	10.8886222839
31	-76.5	11.2695207596
31.5	-76.5	11.7786655426
32	-76.5	12.4033288956
32.5	-76.5	13.127579689
33	-76.5	13.9328212738
33.5	-76.5	14.796918869
34	-76.5	15.6947698593
34.5	-76.5	16.5991249084
35	-76.5	17.4810180664
35.5	-76.5	18.3114643097
36	-76.5	19.0627326965
36.5	-76.5	19.709236145
37	-76.5	20.2291259766
37.5	-76.5	20.6054973602
38	-76.5	20.8265361786
38.5	-76.5	20.887140274
39	-76.5	20.7876281738
39.5	-76.5	20.5339889526
40	-76.5	20.1366901398
40.5	-76.5	19.6100826263
41	-76.5	18.9713726044
41.5	-76.5	18.2374515533
42	-76.5	17.4261417389
42.5	-76.5	16.555847168
43	-76.5	15.6423549652
43.5	-76.5	14.7012271881
44	-76.5	13.746837616
44.5	-76.5	12.7932157516
45	-76.5	11.8533496857
45.5	-76.5	10.9395389557
46	-76.5	10.063325882
46.5	-76.5	9.23479270935
47	-76.5	8.4623632431
47.5	-76.5	7.75311470032
48	-76.5	7.11203813553
48.5	-76.5	6.54150724411
49	-76.5	6.04212379456
49.5	-76.5	5.61276578903
50	-76.5	5.25106668472
50.5	-76.5	4.95332193375
51	-76.5	4.71446704865
51.5	-76.5	4.52926111221
52	-76.5	4.391954422
52.5	-76.5	4.29667139053
53	-76.5	4.23719644547
53.5	-76.5	4.2079744339
54	-76.5	4.20386219025
54.5	-76.5	4.22069358826
55	-76.5	4.25438117981
55.5	-76.5	4.30205154419
56	-76.5	4.36128330231
56.5	-76.5	4.43009185791
57	-76.5	4.50790405273
57.5	-76.5	4.59309387207
58	-76.5	4.68537425995
58.5	-76.5	4.78506326675
59	-76.5	4.89269113541
59.5	-76.5	5.00907230377
60	-76.5	5.13518667221
60.5	-76.5	5.27187204361
61	-76.5	5.41985416412
61.5	-76.5	5.57952785492
62	-76.5	5.75091409683
62.5	-76.5	5.93348884583
63	-76.5	6.12640142441
63.5	-76.5	6.32838726044
64	-76.5	6.53799438477
64.5	-76.5	6.75350809097
65	-76.5	6.97309398651
65.5	-76.5	7.19485235214
66	-76.5	7.41683006287
66.5	-76.5	7.63686418533
67	-76.5	7.85258340836
67.5	-76.5	8.06124401093
68	-76.5	8.25996780396
68.5	-76.5	8.44568920135
69	-76.5	8.61514854431
69.5	-76.5	8.7653465271
70	-76.5	8.89347457886
70.5	-76.5	8.99728107452
71	-76.5	9.07527637482
71.5	-76.5	9.12654876709
72	-76.5	9.15190792084
72.5	-76.5	9.15287590027
73	-76.5	9.13202285767
73.5	-76.5	9.09307575226
74	-76.5	9.04051971436
74.5	-76.5	8.97961521149
75	-76.5	8.91621112823
75.5	-76.5	8.85643959045
76	-76.5	8.80635070801
76.5	-76.5	8.77164173126
77	-76.5	8.75754261017
77.5	-76.5	8.76834487915
78	-76.5	8.80743026733
78.5	-76.5	8.87706279755
79	-76.5	8.97823905945
79.5	-76.5	9.11051559448
80	-76.5	9.27199649811
80.5	-76.5	9.45935821533
81	-76.5	9.66795253754
81.5	-76.5	9.89181900024
82	-76.5	10.1240253448
82.5	-76.5	10.356918335
83	-76.5	10.5825138092
83.5	-76.5	10.7927694321
84	-76.5	10.9799852371
84.5	-76.5	11.1371860504
85	-76.5	11.2583694458
85.5	-76.5	11.3390846252
86	-76.5	11.3764028549
86.5	-76.5	11.3692388535
87	-76.5	11.3186750412
87.5	-76.5	11.2279376984
88	-76.5	11.1024951935
88.5	-76.5	10.9499673843
89	-76.5	10.7798843384
89.5	-76.5	10.6032905579
90	-76.5	10.4323225021
90.5	-76.5	10.2795553207
91	-76.5	10.1570682526
91.5	-76.5	10.0758066177
92	-76.5	10.0447435379
92.5	-76.5	10.0700674057
93	-76.5	10.1548643112
93.5	-76.5	10.2984256744
94	-76.5	10.4963493347
94.5	-76.5	10.7405252457
95	-76.5	11.0197896957
95.5	-76.5	11.3203725815
96	-76.5	11.6270332336
96.5	-76.5	11.9242477417
97	-76.5	12.1970825195
97.5	-76.5	12.4323358536
98	-76.5	12.6192760468
98.5	-76.5	12.7503004074
99	-76.5	12.8212280273
99.5	-76.5	12.8312292099
100	-76.5	12.782538414
100.5	-76.5	12.6798448563
101	-76.5	12.5296096802
101.5	-76.5	12.3393745422
102	-76.5	12.1171188354
102.5	-76.5	11.8705148697
103	-76.5	11.6064519882
103.5	-76.5	11.3308601379
104	-76.5	11.0484800339
104.5	-76.5	10.7631292343
105	-76.5	10.477804184
105.5	-76.5	10.1946716309
106	-76.5	9.91560459137
106.5	-76.5	9.64208126068
107	-76.5	9.37547969818
107.5	-76.5	9.11670970917
108	-76.5	8.86647319794
108.5	-76.5	8.62523651123
109	-76.5	8.39320087433
109.5	-76.5	8.17022609711
110	-76.5	7.95571231842
110.5	-76.5	7.74886465073
111	-76.5	7.54896879196
111.5	-76.5	7.35532712936
112	-76.5	7.16739225388
112.5	-76.5	6.98485279083
113	-76.5	6.80782175064
113.5	-76.5	6.6368021965
114	-76.5	6.47282028198
114.5	-76.5	6.31723976135
115	-76.5	6.17187833786
115.5	-76.5	6.03858423233
116	-76.5	5.91902208328
116.5	-76.5	5.81441020966
117	-76.5	5.72552204132
117.5	-76.5	5.65254592896
118	-76.5	5.59521150589
118.5	-76.5	5.5528178215
119	-76.5	5.52435064316
119.5	-76.5	5.50884103775
120	-76.5	5.50530147552
120.5	-76.5	5.51261568069
121	-76.5	5.52987718582
121.5	-76.5	5.55617856979
122	-76.5	5.590903759
122.5	-76.5	5.63323020935
123	-76.5	5.68216276169
123.5	-76.5	5.73636007309
124	-76.5	5.79450368881
124.5	-76.5	5.85490703583
125	-76.5	5.91570806503
125.5	-76.5	5.97475671768
126	-76.5	6.02989864349
126.5	-76.5	6.07921648026
127	-76.5	6.12109279633
127.5	-76.5	6.15469837189
128	-76.5	6.18014478683
128.5	-76.5	6.19845581055
129	-76.5	6.21168136597
129.5	-76.5	6.22273159027
130	-76.5	6.23522663116
130.5	-76.5	6.25319576263
131	-76.5	6.28064966202
131.5	-76.5	6.32110023499
132	-76.5	6.37722253799
132.5	-76.5	6.45027685165
133	-76.5	6.53998661041
133.5	-76.5	6.64420986176
134	-76.5	6.75923538208
134.5	-76.5	6.87970495224
135	-76.5	6.99929904938
135.5	-76.5	7.11104917526
136	-76.5	7.20819568634
136.5	-76.5	7.28478574753
137	-76.5	7.33621025085
137.5	-76.5	7.35970211029
138	-76.5	7.35472774506
138.5	-76.5	7.32272911072
139	-76.5	7.26717329025
139.5	-76.5	7.19314908981
140	-76.5	7.10684204102
140.5	-76.5	7.01499795914
141	-76.5	6.92443656921
141.5	-76.5	6.84177494049
142	-76.5	6.77290248871
142.5	-76.5	6.72287368774
143	-76.5	6.69582939148
143.5	-76.5	6.69462347031
144	-76.5	6.72101688385
144.5	-76.5	6.77579545975
145	-76.5	6.85870409012
145.5	-76.5	6.96850919724
146	-76.5	7.10295534134
146.5	-76.5	7.2587685585
147	-76.5	7.43175697327
147.5	-76.5	7.61677265167
148	-76.5	7.80775165558
148.5	-76.5	7.99785709381
149	-76.5	8.17948532104
149.5	-76.5	8.34439945221
150	-76.5	8.48436927795
150.5	-76.5	8.59160804749
151	-76.5	8.65929222107
151.5	-76.5	8.68249607086
152	-76.5	8.65774250031
152.5	-76.5	8.58486557007
153	-76.5	8.46402454376
153.5	-76.5	8.2943277359
154	-76.5	8.08055782318
154.5	-76.5	7.82906579971
155	-76.5	7.54573869705
155.5	-76.5	7.23534870148
156	-76.5	6.9047164917
156.5	-76.5	6.55912446976
157	-76.5	6.20189809799
157.5	-76.5	5.83491849899
158	-76.5	5.45960950851
158.5	-76.5	5.07714986801
159	-76.5	4.68849658966
159.5	-76.5	4.2952504158
160	-76.5	3.89979767799
160.5	-76.5	3.50739407539
161	-76.5	3.12540006638
