161	-73	134.640762329
161.5	-73	120.976425171
162	-73	107.979202271
162.5	-73	96.0012435913
163	-73	85.2857818604
163.5	-73	75.9576339722
164	-73	68.0303192139
164.5	-73	61.4293479919
165	-73	56.017993927
165.5	-73	51.6382331848
166	-73	48.1349754333
166.5	-73	45.3635864258
167	-73	43.2081336975
167.5	-73	41.5672721863
168	-73	40.3569335938
168.5	-73	39.5042419434
169	-73	38.956615448
169.5	-73	38.672088623
257	-73	55.0157814026
257.5	-73	55.1181259155
258	-73	55.3392562866
258.5	-73	55.6809921265
259	-73	56.1341590881
259.5	-73	56.6782341003
260	-73	57.2796287537
260.5	-73	57.8952178955
261	-73	58.4765739441
261.5	-73	58.9739723206
262	-73	59.3436660767
262.5	-73	59.5527000427
263	-73	59.5823402405
263.5	-73	59.4302253723
264	-73	59.1103515625
264.5	-73	58.6500396729
265	-73	58.0861625671
265.5	-73	57.4606018066
266	-73	56.815196991
266.5	-73	56.187664032
267	-73	55.6087379456
267.5	-73	55.1007499695
268	-73	54.6770858765
268.5	-73	54.3424339294
269	-73	54.0945014954
269.5	-73	53.9265174866
270	-73	53.8283348083
270.5	-73	53.7886734009
271	-73	53.7971153259
271.5	-73	53.8436126709
272	-73	53.9212265015
272.5	-73	54.0235939026
273	-73	54.1442070007
273.5	-73	54.2777519226
279.5	-73	54.4385604858
281	-73	53.904914856
281.5	-73	53.7363243103
283	-73	53.258769989
283.5	-73	53.1114311218
284	-73	52.9744911194
284.5	-73	52.8541717529
285	-73	52.756439209
285.5	-73	52.6863899231
288	-73	52.8821334839
288.5	-73	53.0551223755
289	-73	53.2821540833
289.5	-73	53.5685920715
290	-73	53.9134750366
290.5	-73	54.3139152527
291	-73	54.7664527893
291.5	-73	55.2647285461
292	-73	55.8006591797
292.5	-73	56.366065979
293	-73	56.9533462524
293.5	-73	57.55727005
294	-73	58.1763114929
294.5	-73	58.8124351501
295	-73	59.4706916809
295.5	-73	60.1583900452
296	-73	60.8839111328
296.5	-73	61.6559829712
297	-73	62.4826583862
297.5	-73	63.3699645996
298	-73	64.3208618164
298.5	-73	65.3341293335
299	-73	66.4039611816
299.5	-73	67.5195999146
300	-73	68.6650238037
340.5	-73	152.808624268
341	-73	154.850372314
341.5	-73	156.945495605
342	-73	159.096054077
342.5	-73	161.311828613
343	-73	163.610961914
343.5	-73	166.018264771
344	-73	168.561325073
344.5	-73	171.262695312
345	-73	174.133560181
345.5	-73	177.167892456
346	-73	180.334838867
346.5	-73	183.575714111
347	-73	186.805206299
347.5	-73	189.920593262
348	-73	192.813705444
348.5	-73	195.383590698
349	-73	197.547561646
349.5	-73	199.252044678
350	-73	200.475875854
350.5	-73	201.227432251
351	-73	201.538360596
351.5	-73	201.452163696
352	-73	201.009643555
352.5	-73	200.241973877
353	-73	199.165649414
353.5	-73	197.783493042
354	-73	196.094619751
354.5	-73	194.097106934
355	-73	191.754440308
355.5	-73	189.073669434
356	-73	186.030731201
356.5	-73	182.646026611
357	-73	178.933837891
357.5	-73	174.889358521
358	-73	170.549743652
358.5	-73	165.958282471
359	-73	161.181533813
359.5	-73	156.312896729
0.5	-73.5	147.930267334
1	-73.5	144.025741577
1.5	-73.5	140.489959717
2	-73.5	137.37979126
2.5	-73.5	134.723937988
3	-73.5	132.525817871
3.5	-73.5	130.76902771
4	-73.5	129.424697876
4.5	-73.5	128.446853638
5	-73.5	127.791358948
5.5	-73.5	127.411811829
6	-73.5	127.249542236
6.5	-73.5	127.260093689
7	-73.5	127.40309906
7.5	-73.5	127.668144226
8	-73.5	128.052124023
8.5	-73.5	128.572540283
9	-73.5	129.26574707
9.5	-73.5	130.189865112
10	-73.5	131.417160034
10.5	-73.5	133.028778076
11	-73.5	135.113143921
11.5	-73.5	137.754348755
12	-73.5	141.026641846
12.5	-73.5	144.988128662
13	-73.5	149.672302246
13.5	-73.5	155.080673218
14	-73.5	161.173843384
14.5	-73.5	167.863647461
15	-73.5	175.013702393
15.5	-73.5	182.444061279
16	-73.5	189.943893433
16.5	-73.5	197.289855957
17	-73.5	204.267776489
17.5	-73.5	210.697418213
18	-73.5	216.447219849
18.5	-73.5	221.440872192
19	-73.5	225.658248901
19.5	-73.5	229.129150391
20	-73.5	231.91847229
20.5	-73.5	234.105453491
21	-73.5	235.769348145
21.5	-73.5	236.97454834
22	-73.5	237.767425537
22.5	-73.5	238.175231934
23	-73.5	238.206939697
23.5	-73.5	237.863433838
24	-73.5	237.147750854
24.5	-73.5	236.074462891
25	-73.5	234.675308228
25.5	-73.5	232.999832153
26	-73.5	231.115859985
26.5	-73.5	229.101867676
27	-73.5	227.041442871
27.5	-73.5	225.01499939
28	-73.5	223.092437744
28.5	-73.5	221.329086304
29	-73.5	219.762176514
29.5	-73.5	218.409805298
30	-73.5	217.271591187
30.5	-73.5	216.332138062
31	-73.5	215.566040039
31.5	-73.5	214.943374634
32	-73.5	214.432769775
32.5	-73.5	214.00402832
33	-73.5	213.631225586
33.5	-73.5	213.294677734
34	-73.5	212.981430054
34.5	-73.5	212.68397522
35	-73.5	212.397750854
35.5	-73.5	212.118530273
36	-73.5	211.840148926
36.5	-73.5	211.551971436
37	-73.5	211.238174438
37.5	-73.5	210.877624512
38	-73.5	210.445144653
38.5	-73.5	209.913772583
39	-73.5	209.257369995
39.5	-73.5	208.454391479
40	-73.5	207.490081787
40.5	-73.5	206.358657837
41	-73.5	205.064453125
41.5	-73.5	203.621185303
42	-73.5	202.050994873
42.5	-73.5	200.382293701
43	-73.5	198.647033691
43.5	-73.5	196.878829956
44	-73.5	195.111251831
44.5	-73.5	193.376480103
45	-73.5	191.704788208
45.5	-73.5	190.123840332
46	-73.5	188.658508301
46.5	-73.5	187.329986572
47	-73.5	186.154800415
47.5	-73.5	185.143173218
48	-73.5	184.29725647
48.5	-73.5	183.609573364
49	-73.5	183.061645508
49.5	-73.5	182.624313354
50	-73.5	182.258026123
50.5	-73.5	181.915740967
51	-73.5	181.546401978
51.5	-73.5	181.098770142
52	-73.5	180.526672363
52.5	-73.5	179.79359436
53	-73.5	178.876159668
53.5	-73.5	177.766326904
54	-73.5	176.471694946
54.5	-73.5	175.014190674
55	-73.5	173.426940918
55.5	-73.5	171.750183105
56	-73.5	170.025848389
56.5	-73.5	168.292678833
57	-73.5	166.582397461
57.5	-73.5	164.917358398
58	-73.5	163.31036377
58.5	-73.5	161.765914917
59	-73.5	160.283050537
59.5	-73.5	158.859436035
60	-73.5	157.495071411
60.5	-73.5	156.195526123
61	-73.5	154.9737854
61.5	-73.5	153.851913452
62	-73.5	152.860900879
62.5	-73.5	152.038970947
63	-73.5	151.427871704
63.5	-73.5	151.069519043
64	-73.5	151.00328064
64.5	-73.5	151.263580322
65	-73.5	151.877288818
65.5	-73.5	152.861526489
66	-73.5	154.2215271
66.5	-73.5	155.950668335
67	-73.5	158.029830933
67.5	-73.5	160.426971436
68	-73.5	163.098602295
68.5	-73.5	165.990814209
69	-73.5	169.041625977
69.5	-73.5	172.183898926
70	-73.5	175.348724365
70.5	-73.5	178.468795776
71	-73.5	181.482879639
71.5	-73.5	184.338790894
72	-73.5	186.99597168
72.5	-73.5	189.427368164
73	-73.5	191.620544434
73.5	-73.5	193.578155518
74	-73.5	195.317810059
74.5	-73.5	196.871124268
75	-73.5	198.282287598
75.5	-73.5	199.606018066
76	-73.5	200.904190063
76.5	-73.5	202.242111206
77	-73.5	203.684509277
77.5	-73.5	205.290374756
78	-73.5	207.108520508
78.5	-73.5	209.173629761
79	-73.5	211.503662109
79.5	-73.5	214.097488403
80	-73.5	216.934524536
80.5	-73.5	219.976242065
81	-73.5	223.169998169
81.5	-73.5	226.45324707
82	-73.5	229.758895874
82.5	-73.5	233.0206604
83	-73.5	236.176422119
83.5	-73.5	239.170852661
84	-73.5	241.956176758
84.5	-73.5	244.491668701
85	-73.5	246.741210938
85.5	-73.5	248.670501709
86	-73.5	250.245071411
86.5	-73.5	251.430969238
87	-73.5	252.196289062
87.5	-73.5	252.514541626
88	-73.5	252.368377686
88.5	-73.5	251.753387451
89	-73.5	250.681182861
89.5	-73.5	249.181243896
90	-73.5	247.300369263
90.5	-73.5	245.099807739
91	-73.5	242.65145874
91.5	-73.5	240.034057617
92	-73.5	237.329849243
92.5	-73.5	234.62121582
93	-73.5	231.987380981
93.5	-73.5	229.502593994
94	-73.5	227.234451294
94.5	-73.5	225.24307251
95	-73.5	223.57989502
95.5	-73.5	222.285415649
96	-73.5	221.388046265
96.5	-73.5	220.902938843
97	-73.5	220.832443237
97.5	-73.5	221.166687012
98	-73.5	221.884368896
98.5	-73.5	222.954711914
99	-73.5	224.339447021
99.5	-73.5	225.995727539
100	-73.5	227.8777771
100.5	-73.5	229.938934326
101	-73.5	232.13243103
101.5	-73.5	234.412979126
102	-73.5	236.736557007
102.5	-73.5	239.060470581
103	-73.5	241.343292236
103.5	-73.5	243.54586792
104	-73.5	245.632080078
104.5	-73.5	247.571380615
105	-73.5	249.340515137
105.5	-73.5	250.926422119
106	-73.5	252.328277588
106.5	-73.5	253.557723999
107	-73.5	254.637451172
107.5	-73.5	255.597869873
108	-73.5	256.471984863
108.5	-73.5	257.28994751
109	-73.5	258.072601318
109.5	-73.5	258.826049805
110	-73.5	259.53717041
110.5	-73.5	260.172637939
111	-73.5	260.680236816
111.5	-73.5	260.994476318
112	-73.5	261.042907715
112.5	-73.5	260.755065918
113	-73.5	260.070129395
113.5	-73.5	258.943450928
114	-73.5	257.352142334
114.5	-73.5	255.296676636
115	-73.5	252.802001953
115.5	-73.5	249.91545105
116	-73.5	246.704055786
116.5	-73.5	243.250915527
117	-73.5	239.651916504
117.5	-73.5	236.011749268
118	-73.5	232.440322876
118.5	-73.5	229.048187256
119	-73.5	225.94229126
119.5	-73.5	223.21975708
120	-73.5	220.963378906
120.5	-73.5	219.237243652
121	-73.5	218.084533691
121.5	-73.5	217.525192261
122	-73.5	217.555831909
122.5	-73.5	218.150299072
123	-73.5	219.262176514
123.5	-73.5	220.828414917
124	-73.5	222.773986816
124.5	-73.5	225.015472412
125	-73.5	227.464889526
125.5	-73.5	230.032348633
126	-73.5	232.629089355
126.5	-73.5	235.168869019
127	-73.5	237.570632935
127.5	-73.5	239.761444092
128	-73.5	241.678039551
128.5	-73.5	243.269866943
129	-73.5	244.501495361
129.5	-73.5	245.355041504
130	-73.5	245.832427979
130.5	-73.5	245.955062866
131	-73.5	245.763290405
131.5	-73.5	245.312744141
132	-73.5	244.668991089
132.5	-73.5	243.901580811
133	-73.5	243.077285767
133.5	-73.5	242.254547119
134	-73.5	241.47869873
134.5	-73.5	240.778762817
135	-73.5	240.166717529
135.5	-73.5	239.638031006
136	-73.5	239.174255371
136.5	-73.5	238.746520996
137	-73.5	238.3203125
137.5	-73.5	237.859802246
138	-73.5	237.33215332
138.5	-73.5	236.711334229
139	-73.5	235.981033325
139.5	-73.5	235.13671875
140	-73.5	234.186477661
140.5	-73.5	233.150497437
141	-73.5	232.060287476
141.5	-73.5	230.955429077
142	-73.5	229.881011963
142.5	-73.5	228.884078979
143	-73.5	228.009994507
143.5	-73.5	227.299575806
144	-73.5	226.786117554
144.5	-73.5	226.493774414
145	-73.5	226.435943604
145.5	-73.5	226.615341187
146	-73.5	227.025238037
146.5	-73.5	227.650283813
147	-73.5	228.468933105
147.5	-73.5	229.455001831
148	-73.5	230.57975769
148.5	-73.5	231.812057495
149	-73.5	233.119369507
149.5	-73.5	234.46711731
150	-73.5	235.818328857
150.5	-73.5	237.132659912
151	-73.5	238.365951538
151.5	-73.5	239.467956543
152	-73.5	240.380355835
152.5	-73.5	241.035339355
153	-73.5	241.356201172
153.5	-73.5	241.256454468
154	-73.5	240.636810303
154.5	-73.5	239.378540039
155	-73.5	237.353668213
155.5	-73.5	234.425262451
156	-73.5	230.457107544
156.5	-73.5	225.322937012
157	-73.5	218.903198242
157.5	-73.5	211.114440918
158	-73.5	201.922225952
158.5	-73.5	191.35723877
159	-73.5	179.539077759
159.5	-73.5	166.68888855
160	-73.5	153.133926392
160.5	-73.5	139.275619507
161	-73.5	125.555343628
161.5	-73.5	112.407081604
162	-73.5	100.205963135
162.5	-73.5	89.2276535034
163	-73.5	79.6264724731
163.5	-73.5	71.4380722046
164	-73.5	64.6004638672
164.5	-73.5	58.9864501953
165	-73.5	54.4349403381
165.5	-73.5	50.7816162109
166	-73.5	47.8769264221
166.5	-73.5	45.5893363953
167	-73.5	43.8188171387
167.5	-73.5	42.4787101746
168	-73.5	41.4886741638
168.5	-73.5	40.7995452881
169	-73.5	40.3714942932
233	-73.5	47.9085197449
233.5	-73.5	48.0965080261
234	-73.5	48.3357849121
258.5	-73.5	52.8163642883
259	-73.5	53.0948448181
259.5	-73.5	53.4920120239
260	-73.5	53.9841041565
260.5	-73.5	54.535369873
261	-73.5	55.1046791077
261.5	-73.5	55.6489257812
262	-73.5	56.1273460388
262.5	-73.5	56.5071678162
263	-73.5	56.7650909424
263.5	-73.5	56.8914642334
264	-73.5	56.8905105591
264.5	-73.5	56.7747421265
265	-73.5	56.5666694641
265.5	-73.5	56.2923698425
266	-73.5	55.9787712097
266.5	-73.5	55.6505622864
267	-73.5	55.3285903931
267.5	-73.5	55.0283813477
268	-73.5	54.7598609924
268.5	-73.5	54.5281906128
269	-73.5	54.3344993591
269.5	-73.5	54.1781425476
270	-73.5	54.0558166504
270.5	-73.5	53.9650726318
271	-73.5	53.9048995972
271.5	-73.5	53.8749694824
272	-73.5	53.8773422241
272.5	-73.5	53.9108657837
273	-73.5	53.9754981995
273.5	-73.5	54.0685997009
274	-73.5	54.1853485107
274.5	-73.5	54.3190155029
279	-73.5	54.8667945862
279.5	-73.5	54.788772583
280	-73.5	54.6942367554
280.5	-73.5	54.5886230469
281	-73.5	54.4763717651
281.5	-73.5	54.3575820923
282	-73.5	54.2370910645
282.5	-73.5	54.1173553467
283	-73.5	54.0026893616
283.5	-73.5	53.8977622986
284	-73.5	53.8078269958
284.5	-73.5	53.7384529114
285	-73.5	53.694644928
285.5	-73.5	53.6818847656
286	-73.5	53.695514679
286.5	-73.5	53.7407341003
287	-73.5	53.8184432983
287.5	-73.5	53.9283370972
288	-73.5	54.0728111267
288.5	-73.5	54.2501449585
289	-73.5	54.462978363
289.5	-73.5	54.7155952454
290	-73.5	55.0102996826
290.5	-73.5	55.3510437012
291	-73.5	55.7409553528
291.5	-73.5	56.1819038391
292	-73.5	56.6748313904
292.5	-73.5	57.2199783325
293	-73.5	57.817653656
293.5	-73.5	58.4689750671
294	-73.5	59.1761779785
294.5	-73.5	59.9431152344
295	-73.5	60.7748184204
295.5	-73.5	61.6771812439
296	-73.5	62.6567001343
296.5	-73.5	63.7203445435
297	-73.5	64.874382019
297.5	-73.5	66.1238021851
298	-73.5	67.4705123901
298.5	-73.5	68.9121017456
299	-73.5	70.440864563
339.5	-73.5	159.120346069
340	-73.5	161.118728638
340.5	-73.5	163.120010376
341	-73.5	165.112136841
341.5	-73.5	167.086288452
342	-73.5	169.039657593
342.5	-73.5	170.977478027
343	-73.5	172.912582397
343.5	-73.5	174.864059448
344	-73.5	176.855056763
344.5	-73.5	178.908172607
345	-73.5	181.039825439
345.5	-73.5	183.255126953
346	-73.5	185.542724609
346.5	-73.5	187.873031616
347	-73.5	190.19833374
347.5	-73.5	192.45526123
348	-73.5	194.571640015
348.5	-73.5	196.474777222
349	-73.5	198.100296021
349.5	-73.5	199.398696899
350	-73.5	200.338394165
350.5	-73.5	200.905349731
351	-73.5	201.100082397
351.5	-73.5	200.932861328
352	-73.5	200.417678833
352.5	-73.5	199.56640625
353	-73.5	198.386062622
353.5	-73.5	196.878219604
354	-73.5	195.062789917
354.5	-73.5	192.92276001
355	-73.5	190.473175049
355.5	-73.5	187.69670105
356	-73.5	184.615112305
356.5	-73.5	181.249038696
357	-73.5	177.61781311
357.5	-73.5	173.728546143
358	-73.5	169.618713379
358.5	-73.5	165.3306427
359	-73.5	160.925857544
359.5	-73.5	156.487884521
0.5	-74	146.843185425
1	-74	143.795822144
1.5	-74	141.091995239
2	-74	138.769546509
2.5	-74	136.843460083
3	-74	135.308502197
3.5	-74	134.146026611
4	-74	133.319534302
4.5	-74	132.786437988
5	-74	132.506271362
5.5	-74	132.438613892
6	-74	132.538925171
6.5	-74	132.783859253
7	-74	133.153396606
7.5	-74	133.657211304
8	-74	134.328125
8.5	-74	135.221633911
9	-74	136.419631958
9.5	-74	138.020782471
10	-74	140.13458252
10.5	-74	142.867858887
11	-74	146.315109253
11.5	-74	150.548019409
12	-74	155.604217529
12.5	-74	161.477035522
13	-74	168.112045288
13.5	-74	175.40272522
14	-74	183.190414429
14.5	-74	191.268493652
15	-74	199.39289856
15.5	-74	207.300598145
16	-74	214.730957031
16.5	-74	221.451919556
17	-74	227.282836914
17.5	-74	232.111663818
18	-74	235.903701782
18.5	-74	238.700744629
19	-74	240.607955933
19.5	-74	241.773956299
20	-74	242.364944458
20.5	-74	242.540252686
21	-74	242.434371948
21.5	-74	242.144546509
22	-74	241.729980469
22.5	-74	241.212173462
23	-74	240.586791992
23.5	-74	239.83203125
24	-74	238.919799805
24.5	-74	237.826675415
25	-74	236.541519165
25.5	-74	235.068252563
26	-74	233.426818848
26.5	-74	231.653625488
27	-74	229.797714233
27.5	-74	227.914794922
28	-74	226.06086731
28.5	-74	224.287261963
29	-74	222.637039185
29.5	-74	221.142303467
30	-74	219.822845459
30.5	-74	218.685913086
31	-74	217.727905273
31.5	-74	216.937301636
32	-74	216.298065186
32.5	-74	215.792205811
33	-74	215.402786255
33.5	-74	215.11517334
34	-74	214.917709351
34.5	-74	214.801513672
35	-74	214.758636475
35.5	-74	214.779129028
36	-74	214.848709106
36.5	-74	214.946273804
37	-74	215.043151855
37.5	-74	215.103591919
38	-74	215.085983276
38.5	-74	214.945770264
39	-74	214.639251709
39.5	-74	214.127883911
40	-74	213.382141113
40.5	-74	212.384460449
41	-74	211.130996704
41.5	-74	209.631332397
42	-74	207.907684326
42.5	-74	205.992706299
43	-74	203.926574707
43.5	-74	201.754562378
44	-74	199.524581909
44.5	-74	197.285324097
45	-74	195.084869385
45.5	-74	192.969482422
46	-74	190.982299805
46.5	-74	189.16204834
47	-74	187.54133606
47.5	-74	186.14453125
48	-74	184.986160278
48.5	-74	184.068862915
49	-74	183.382659912
49.5	-74	182.904434204
50	-74	182.598861694
50.5	-74	182.420791626
51	-74	182.31803894
51.5	-74	182.236129761
52	-74	182.122238159
52.5	-74	181.930221558
53	-74	181.623809814
53.5	-74	181.179412842
54	-74	180.587112427
54.5	-74	179.850265503
55	-74	178.983535767
55.5	-74	178.010116577
56	-74	176.957839966
56.5	-74	175.855407715
57	-74	174.728881836
57.5	-74	173.599533081
58	-74	172.482421875
58.5	-74	171.386734009
59	-74	170.316390991
59.5	-74	169.272171021
60	-74	168.254302979
60.5	-74	167.264968872
61	-74	166.31022644
61.5	-74	165.401855469
62	-74	164.558670044
62.5	-74	163.806106567
63	-74	163.175521851
63.5	-74	162.702255249
64	-74	162.424057007
64.5	-74	162.379837036
65	-74	162.607757568
65.5	-74	163.142028809
66	-74	164.010864258
66.5	-74	165.233337402
67	-74	166.817260742
67.5	-74	168.756240845
68	-74	171.027709961
68.5	-74	173.592697144
69	-74	176.396759033
69.5	-74	179.372406006
70	-74	182.44291687
70.5	-74	185.527694702
71	-74	188.548599243
71.5	-74	191.435546875
72	-74	194.132049561
72.5	-74	196.598022461
73	-74	198.812698364
73.5	-74	200.775024414
74	-74	202.503219604
74.5	-74	204.031829834
75	-74	205.409332275
75.5	-74	206.693572998
76	-74	207.947601318
76.5	-74	209.234817505
77	-74	210.615234375
77.5	-74	212.140258789
78	-74	213.85005188
78.5	-74	215.770080566
79	-74	217.909729004
79.5	-74	220.260757446
80	-74	222.798904419
80.5	-74	225.485900879
81	-74	228.272964478
81.5	-74	231.104537964
82	-74	233.922744751
82.5	-74	236.671188354
83	-74	239.297775269
83.5	-74	241.756011963
84	-74	244.005645752
84.5	-74	246.011123657
85	-74	247.740539551
85.5	-74	249.164291382
86	-74	250.255630493
86.5	-74	250.990188599
87	-74	251.348266602
87.5	-74	251.316970825
88	-74	250.893966675
88.5	-74	250.089019775
89	-74	248.924942017
89.5	-74	247.438095093
90	-74	245.6771698
90.5	-74	243.701126099
91	-74	241.576629639
91.5	-74	239.374359131
92	-74	237.165405273
92.5	-74	235.018554688
93	-74	232.998321533
93.5	-74	231.162963867
94	-74	229.564239502
94.5	-74	228.245880127
95	-74	227.243164062
95.5	-74	226.582382202
96	-74	226.280883789
96.5	-74	226.346969604
97	-74	226.780029297
97.5	-74	227.570602417
98	-74	228.701171875
98.5	-74	230.147171021
99	-74	231.877258301
99.5	-74	233.854721069
100	-74	236.038131714
100.5	-74	238.38218689
101	-74	240.838485718
101.5	-74	243.356170654
102	-74	245.882766724
102.5	-74	248.366012573
103	-74	250.755279541
103.5	-74	253.004364014
104	-74	255.074645996
104.5	-74	256.937835693
105	-74	258.577880859
105.5	-74	259.992218018
106	-74	261.190765381
106.5	-74	262.194885254
107	-74	263.034118652
107.5	-74	263.742462158
108	-74	264.35244751
108.5	-74	264.888641357
109	-74	265.362731934
109.5	-74	265.769195557
110	-74	266.084197998
110.5	-74	266.267211914
111	-74	266.264007568
111.5	-74	266.012023926
112	-74	265.447509766
112.5	-74	264.512390137
113	-74	263.161224365
113.5	-74	261.36630249
114	-74	259.121398926
114.5	-74	256.443664551
115	-74	253.373703003
115.5	-74	249.97354126
116	-74	246.324401855
116.5	-74	242.522567749
117	-74	238.675231934
117.5	-74	234.895828247
118	-74	231.298400879
118.5	-74	227.992538452
119	-74	225.077011108
119.5	-74	222.635116577
120	-74	220.730667114
120.5	-74	219.405288696
121	-74	218.677230835
121.5	-74	218.54083252
122	-74	218.968231201
122.5	-74	219.910934448
123	-74	221.303771973
123.5	-74	223.06880188
124	-74	225.120132446
124.5	-74	227.367767334
125	-74	229.721618652
125.5	-74	232.09552002
126	-74	234.409912109
126.5	-74	236.593795776
127	-74	238.587509155
127.5	-74	240.34312439
128	-74	241.825668335
128.5	-74	243.012542725
129	-74	243.894348145
129.5	-74	244.474807739
130	-74	244.770309448
130.5	-74	244.809112549
131	-74	244.629470825
131.5	-74	244.276641846
132	-74	243.799285889
132.5	-74	243.245895386
133	-74	242.660797119
133.5	-74	242.081268311
134	-74	241.534729004
134.5	-74	241.037200928
135	-74	240.592926025
135.5	-74	240.194869995
136	-74	239.826522827
136.5	-74	239.464294434
137	-74	239.080337524
137.5	-74	238.645858765
138	-74	238.134429932
138.5	-74	237.524612427
139	-74	236.803070068
139.5	-74	235.965881348
140	-74	235.020462036
140.5	-74	233.985580444
141	-74	232.89100647
141.5	-74	231.775787354
142	-74	230.685333252
142.5	-74	229.668151855
143	-74	228.772369385
143.5	-74	228.042282104
144	-74	227.51499939
144.5	-74	227.218032837
145	-74	227.167800903
145.5	-74	227.369140625
146	-74	227.815689087
146.5	-74	228.491271973
147	-74	229.371826172
147.5	-74	230.427047729
148	-74	231.622543335
148.5	-74	232.920837402
149	-74	234.282089233
149.5	-74	235.664260864
150	-74	237.022644043
150.5	-74	238.309005737
151	-74	239.470947266
151.5	-74	240.450302124
152	-74	241.182174683
152.5	-74	241.593032837
153	-74	241.602233887
153.5	-74	241.119064331
154	-74	240.041015625
154.5	-74	238.253417969
155	-74	235.634933472
155.5	-74	232.072158813
156	-74	227.444168091
156.5	-74	221.637985229
157	-74	214.559265137
157.5	-74	206.150985718
158	-74	196.412017822
158.5	-74	185.409164429
159	-74	173.303527832
159.5	-74	160.355209351
160	-74	146.906799316
160.5	-74	133.363632202
161	-74	120.148719788
161.5	-74	107.658813477
162	-74	96.2179794312
162.5	-74	86.0476608276
163	-74	77.2546234131
163.5	-74	69.8363418579
164	-74	63.7038497925
164.5	-74	58.7173461914
165	-74	54.7110748291
165.5	-74	51.5179252625
166	-74	48.9920806885
232.5	-74	43.7087173462
233	-74	43.9016151428
233.5	-74	44.1642723083
234	-74	44.4819641113
234.5	-74	44.8409996033
235	-74	45.2288284302
235.5	-74	45.6347732544
236	-74	46.0503082275
236.5	-74	46.469669342
237	-74	46.890083313
237.5	-74	47.3114051819
238	-74	47.7358970642
238.5	-74	48.1671066284
239	-74	48.6089782715
239.5	-74	49.0646896362
240	-74	49.5363540649
240.5	-74	50.0239219666
241	-74	50.5257606506
241.5	-74	51.0389251709
243	-74	52.5989303589
243.5	-74	53.1058692932
245.5	-74	54.8562316895
246	-74	55.1742744446
258.5	-74	50.7281799316
259	-74	51.0198936462
259.5	-74	51.422908783
260	-74	51.9171867371
260.5	-74	52.4739837646
261	-74	53.0591049194
261.5	-74	53.637260437
262	-74	54.1779556274
262.5	-74	54.6534118652
263	-74	55.043964386
263.5	-74	55.3407211304
264	-74	55.5424537659
264.5	-74	55.6536712646
265	-74	55.6848144531
265.5	-74	55.6490516663
266	-74	55.561164856
266.5	-74	55.4353141785
267	-74	55.2847938538
267.5	-74	55.1208076477
268	-74	54.952835083
268.5	-74	54.7872085571
269	-74	54.6307296753
269.5	-74	54.4887809753
270	-74	54.3639526367
270.5	-74	54.2610359192
271	-74	54.1824607849
271.5	-74	54.1310005188
272	-74	54.1078948975
272.5	-74	54.113067627
273	-74	54.1449394226
273.5	-74	54.1982498169
274	-74	54.2685966492
274.5	-74	54.3478088379
275	-74	54.4289588928
275.5	-74	54.505405426
276	-74	54.5723304749
276.5	-74	54.6249580383
277	-74	54.6625823975
277.5	-74	54.6865615845
278	-74	54.7001953125
278.5	-74	54.7063865662
279	-74	54.708568573
279.5	-74	54.7096214294
280	-74	54.7113265991
280.5	-74	54.7142448425
281	-74	54.7164993286
281.5	-74	54.7196846008
282	-74	54.7248039246
282.5	-74	54.7343902588
283	-74	54.7526512146
283.5	-74	54.7848548889
284	-74	54.8369026184
284.5	-74	54.9129524231
285	-74	55.0181236267
285.5	-74	55.1535568237
286	-74	55.3175048828
286.5	-74	55.5060577393
287	-74	55.7134780884
287.5	-74	55.9349632263
288	-74	56.1628074646
288.5	-74	56.393611908
289	-74	56.6272964478
289.5	-74	56.8674163818
290	-74	57.1210403442
290.5	-74	57.3979644775
291	-74	57.7096290588
291.5	-74	58.0687942505
292	-74	58.4884300232
292.5	-74	58.9817276001
293	-74	59.5610733032
293.5	-74	60.237575531
294	-74	61.0212211609
294.5	-74	61.9201698303
295	-74	62.9412231445
295.5	-74	64.0890960693
296	-74	65.3669815063
296.5	-74	66.7760543823
297	-74	68.3154907227
297.5	-74	69.9815139771
298	-74	71.7668914795
298.5	-74	73.65990448
299	-74	75.643157959
335	-74	148.701141357
335.5	-74	150.802337646
336	-74	152.957611084
339	-74	165.786117554
339.5	-74	167.746414185
340	-74	169.626266479
340.5	-74	171.420379639
341	-74	173.127639771
341.5	-74	174.750427246
342	-74	176.295120239
342.5	-74	177.771606445
343	-74	179.193756104
343.5	-74	180.578216553
344	-74	181.943649292
344.5	-74	183.307373047
345	-74	184.681671143
345.5	-74	186.071548462
346	-74	187.472885132
346.5	-74	188.871826172
347	-74	190.244293213
347.5	-74	191.557052612
348	-74	192.771774292
348.5	-74	193.847915649
349	-74	194.746810913
349.5	-74	195.433364868
350	-74	195.878341675
350.5	-74	196.059020996
351	-74	195.958465576
351.5	-74	195.564453125
352	-74	194.868133545
352.5	-74	193.862991333
353	-74	192.544265747
353.5	-74	190.917617798
354	-74	188.995330811
354.5	-74	186.771682739
355	-74	184.269546509
355.5	-74	181.504226685
356	-74	178.506057739
356.5	-74	175.30796814
357	-74	171.937957764
357.5	-74	168.41947937
358	-74	164.790847778
358.5	-74	161.093002319
359	-74	157.37840271
359.5	-74	153.713134766
0.5	-74.5	146.807952881
1	-74.5	144.684005737
1.5	-74.5	142.860595703
2	-74.5	141.361968994
2.5	-74.5	140.196884155
3	-74.5	139.361434937
3.5	-74.5	138.841262817
4	-74.5	138.618713379
4.5	-74.5	138.654647827
5	-74.5	138.926452637
5.5	-74.5	139.405715942
6	-74.5	140.062103271
6.5	-74.5	140.881393433
7	-74.5	141.864059448
7.5	-74.5	143.028640747
8	-74.5	144.420272827
8.5	-74.5	146.109558105
9	-74.5	148.187530518
9.5	-74.5	150.76121521
10	-74.5	153.934814453
10.5	-74.5	157.798370361
11	-74.5	162.413269043
11.5	-74.5	167.802612305
12	-74.5	173.937805176
12.5	-74.5	180.736465454
13	-74.5	188.059509277
13.5	-74.5	195.716140747
14	-74.5	203.474639893
14.5	-74.5	211.079406738
15	-74.5	218.269165039
15.5	-74.5	224.798812866
16	-74.5	230.460906982
16.5	-74.5	235.102798462
17	-74.5	238.644348145
17.5	-74.5	241.084106445
18	-74.5	242.496444702
18.5	-74.5	243.018569946
19	-74.5	242.829330444
19.5	-74.5	242.126861572
20	-74.5	241.104263306
20.5	-74.5	239.93057251
21	-74.5	238.736221313
21.5	-74.5	237.610351562
22	-74.5	236.598114014
22.5	-74.5	235.713592529
23	-74.5	234.942199707
23.5	-74.5	234.25378418
24	-74.5	233.608779907
24.5	-74.5	232.963500977
25	-74.5	232.278518677
25.5	-74.5	231.525863647
26	-74.5	230.68963623
26.5	-74.5	229.767562866
27	-74.5	228.770019531
27.5	-74.5	227.717514038
28	-74.5	226.637680054
28.5	-74.5	225.562271118
29	-74.5	224.524414062
29.5	-74.5	223.555465698
30	-74.5	222.682312012
30.5	-74.5	221.925567627
31	-74.5	221.298797607
31.5	-74.5	220.808822632
32	-74.5	220.45652771
32.5	-74.5	220.23840332
33	-74.5	220.147384644
33.5	-74.5	220.174468994
34	-74.5	220.309814453
34.5	-74.5	220.542495728
35	-74.5	220.859634399
35.5	-74.5	221.244918823
36	-74.5	221.676269531
36.5	-74.5	222.124908447
37	-74.5	222.554702759
37.5	-74.5	222.922119141
38	-74.5	223.178222656
38.5	-74.5	223.27130127
39	-74.5	223.150558472
39.5	-74.5	222.770355225
40	-74.5	222.094528198
40.5	-74.5	221.099731445
41	-74.5	219.777648926
41.5	-74.5	218.13583374
42	-74.5	216.196990967
42.5	-74.5	213.997375488
43	-74.5	211.58392334
43.5	-74.5	209.011627197
44	-74.5	206.340286255
44.5	-74.5	203.632217407
45	-74.5	200.949264526
45.5	-74.5	198.350738525
46	-74.5	195.891265869
46.5	-74.5	193.618972778
47	-74.5	191.574035645
47.5	-74.5	189.787139893
48	-74.5	188.278045654
48.5	-74.5	187.054779053
49	-74.5	186.112869263
49.5	-74.5	185.435745239
50	-74.5	184.995529175
50.5	-74.5	184.755004883
51	-74.5	184.669921875
51.5	-74.5	184.692062378
52	-74.5	184.772720337
52.5	-74.5	184.866531372
53	-74.5	184.934112549
53.5	-74.5	184.944717407
54	-74.5	184.877258301
54.5	-74.5	184.720565796
55	-74.5	184.472625732
55.5	-74.5	184.139053345
56	-74.5	183.731079102
56.5	-74.5	183.262985229
57	-74.5	182.749862671
57.5	-74.5	182.2056427
58	-74.5	181.641494751
58.5	-74.5	181.066040039
59	-74.5	180.485458374
59.5	-74.5	179.903503418
60	-74.5	179.322769165
60.5	-74.5	178.746032715
61	-74.5	178.177825928
61.5	-74.5	177.625701904
62	-74.5	177.101089478
62.5	-74.5	176.620422363
63	-74.5	176.205062866
63.5	-74.5	175.881759644
64	-74.5	175.681427002
64.5	-74.5	175.637588501
65	-74.5	175.785308838
65.5	-74.5	176.159423828
66	-74.5	176.791641235
66.5	-74.5	177.70791626
67	-74.5	178.925048828
67.5	-74.5	180.447677612
68	-74.5	182.265899658
68.5	-74.5	184.353500366
69	-74.5	186.668731689
69.5	-74.5	189.155395508
70	-74.5	191.747512817
70.5	-74.5	194.374038696
71	-74.5	196.964370728
71.5	-74.5	199.454345703
72	-74.5	201.792114258
72.5	-74.5	203.942077637
73	-74.5	205.88659668
73.5	-74.5	207.626617432
74	-74.5	209.180358887
74.5	-74.5	210.580871582
75	-74.5	211.872528076
75.5	-74.5	213.105941772
76	-74.5	214.333572388
76.5	-74.5	215.605453491
77	-74.5	216.966705322
77.5	-74.5	218.453948975
78	-74.5	220.092987061
78.5	-74.5	221.896881104
79	-74.5	223.865585327
79.5	-74.5	225.985977173
80	-74.5	228.232757568
80.5	-74.5	230.570541382
81	-74.5	232.956680298
81.5	-74.5	235.344161987
82	-74.5	237.684585571
82.5	-74.5	239.930908203
83	-74.5	242.039535522
83.5	-74.5	243.971405029
84	-74.5	245.692672729
84.5	-74.5	247.174179077
85	-74.5	248.391494751
85.5	-74.5	249.324493408
86	-74.5	249.958129883
86.5	-74.5	250.282424927
87	-74.5	250.293731689
87.5	-74.5	249.995269775
88	-74.5	249.398376465
88.5	-74.5	248.523666382
89	-74.5	247.401107788
89.5	-74.5	246.069503784
90	-74.5	244.574935913
90.5	-74.5	242.969497681
91	-74.5	241.308868408
91.5	-74.5	239.64956665
92	-74.5	238.046508789
92.5	-74.5	236.551712036
93	-74.5	235.213378906
93.5	-74.5	234.075210571
94	-74.5	233.175231934
94.5	-74.5	232.545196533
95	-74.5	232.210281372
95.5	-74.5	232.190155029
96	-74.5	232.498535156
96.5	-74.5	233.142837524
97	-74.5	234.123626709
97.5	-74.5	235.434661865
98	-74.5	237.06237793
98.5	-74.5	238.985656738
99	-74.5	241.175079346
99.5	-74.5	243.592666626
100	-74.5	246.191940308
100.5	-74.5	248.918701172
101	-74.5	251.712234497
101.5	-74.5	254.507949829
102	-74.5	257.240142822
102.5	-74.5	259.844696045
103	-74.5	262.262481689
103.5	-74.5	264.44317627
104	-74.5	266.348754883
104.5	-74.5	267.95602417
105	-74.5	269.257965088
105.5	-74.5	270.263122559
106	-74.5	270.994140625
106.5	-74.5	271.484588623
107	-74.5	271.774414062
107.5	-74.5	271.904296875
108	-74.5	271.909759521
108.5	-74.5	271.815490723
109	-74.5	271.630279541
109.5	-74.5	271.345855713
110	-74.5	270.937683105
110.5	-74.5	270.367156982
111	-74.5	269.585845947
111.5	-74.5	268.540252686
112	-74.5	267.178192139
112.5	-74.5	265.455444336
113	-74.5	263.341156006
113.5	-74.5	260.822540283
114	-74.5	257.908447266
114.5	-74.5	254.630004883
115	-74.5	251.040756226
115.5	-74.5	247.215011597
116	-74.5	243.244354248
116.5	-74.5	239.233444214
117	-74.5	235.294815063
117.5	-74.5	231.542495728
118	-74.5	228.0859375
118.5	-74.5	225.023910522
119	-74.5	222.439849854
119.5	-74.5	220.397903442
120	-74.5	218.940719604
120.5	-74.5	218.087051392
121	-74.5	217.832092285
121.5	-74.5	218.14781189
122	-74.5	218.985229492
122.5	-74.5	220.277893066
123	-74.5	221.944824219
123.5	-74.5	223.895141602
124	-74.5	226.0337677
124.5	-74.5	228.265975952
125	-74.5	230.502593994
125.5	-74.5	232.663833618
126	-74.5	234.682159424
126.5	-74.5	236.505569458
127	-74.5	238.098495483
127.5	-74.5	239.440994263
128	-74.5	240.527328491
128.5	-74.5	241.363922119
129	-74.5	241.966995239
129.5	-74.5	242.359832764
130	-74.5	242.570632935
130.5	-74.5	242.629974365
131	-74.5	242.569274902
131.5	-74.5	242.419082642
132	-74.5	242.207519531
132.5	-74.5	241.959182739
133	-74.5	241.694168091
133.5	-74.5	241.427597046
134	-74.5	241.169189453
134.5	-74.5	240.923080444
135	-74.5	240.687927246
135.5	-74.5	240.456787109
136	-74.5	240.218032837
136.5	-74.5	239.955993652
137	-74.5	239.652420044
137.5	-74.5	239.288024902
138	-74.5	238.844390869
138.5	-74.5	238.305801392
139	-74.5	237.661346436
139.5	-74.5	236.907089233
140	-74.5	236.04750061
140.5	-74.5	235.096878052
141	-74.5	234.079650879
141.5	-74.5	233.029571533
142	-74.5	231.987869263
142.5	-74.5	231.000656128
143	-74.5	230.115570068
143.5	-74.5	229.378005981
144	-74.5	228.827941895
144.5	-74.5	228.497192383
145	-74.5	228.407043457
145.5	-74.5	228.567062378
146	-74.5	228.974853516
146.5	-74.5	229.616867065
147	-74.5	230.469497681
147.5	-74.5	231.500747681
148	-74.5	232.672164917
148.5	-74.5	233.940170288
149	-74.5	235.257965088
149.5	-74.5	236.575424194
150	-74.5	237.839355469
150.5	-74.5	238.993209839
151	-74.5	239.977706909
151.5	-74.5	240.731018066
152	-74.5	241.188034058
152.5	-74.5	241.278945923
153	-74.5	240.927902222
153.5	-74.5	240.051254272
154	-74.5	238.551422119
154.5	-74.5	236.328094482
155	-74.5	233.284286499
155.5	-74.5	229.318466187
156	-74.5	224.330215454
156.5	-74.5	218.231735229
157	-74.5	210.945724487
157.5	-74.5	202.423217773
158	-74.5	192.680160522
158.5	-74.5	181.804077148
159	-74.5	169.960632324
159.5	-74.5	157.399795532
160	-74.5	144.44543457
160.5	-74.5	131.472717285
161	-74.5	118.867141724
161.5	-74.5	106.984428406
162	-74.5	96.1157684326
162.5	-74.5	86.4571609497
163	-74.5	78.1027374268
163.5	-74.5	71.0507888794
164	-74.5	65.2246932983
164.5	-74.5	60.4999237061
165	-74.5	56.7273330688
226.5	-74.5	45.5596046448
227	-74.5	44.6104812622
227.5	-74.5	43.7450904846
228	-74.5	42.9735069275
228.5	-74.5	42.3084449768
229	-74.5	41.7586364746
229.5	-74.5	41.3287086487
230	-74.5	41.0118255615
230.5	-74.5	40.8146705627
231	-74.5	40.7286262512
231.5	-74.5	40.744594574
232	-74.5	40.8525848389
232.5	-74.5	41.0422401428
233	-74.5	41.3026885986
233.5	-74.5	41.6236305237
234	-74.5	41.9939117432
234.5	-74.5	42.399471283
235	-74.5	42.82289505
235.5	-74.5	43.2600517273
236	-74.5	43.7001342773
236.5	-74.5	44.1337471008
237	-74.5	44.5551452637
237.5	-74.5	44.9641799927
238	-74.5	45.3471794128
238.5	-74.5	45.7094535828
239	-74.5	46.0538978577
239.5	-74.5	46.3849143982
240	-74.5	46.7074050903
240.5	-74.5	47.0262718201
241	-74.5	47.3462409973
241.5	-74.5	47.671497345
242	-74.5	48.0055046082
242.5	-74.5	48.3502540588
243	-74.5	48.706073761
243.5	-74.5	49.0702972412
244	-74.5	49.4372291565
244.5	-74.5	49.7973670959
245	-74.5	50.1409111023
245.5	-74.5	50.4560089111
246	-74.5	50.7283477783
246.5	-74.5	50.9461746216
247	-74.5	51.1002960205
247.5	-74.5	51.1853599548
248	-74.5	51.2010345459
248.5	-74.5	51.1511001587
249	-74.5	51.0434837341
249.5	-74.5	50.8893699646
258	-74.5	50.0166168213
258.5	-74.5	50.4176101685
259	-74.5	50.8873291016
259.5	-74.5	51.4141654968
260	-74.5	51.9815559387
260.5	-74.5	52.5694847107
261	-74.5	53.1569442749
261.5	-74.5	53.7228431702
262	-74.5	54.2499389648
262.5	-74.5	54.721786499
263	-74.5	55.1278610229
263.5	-74.5	55.4625244141
264	-74.5	55.7220916748
264.5	-74.5	55.9087409973
265	-74.5	56.0253639221
265.5	-74.5	56.0772361755
266	-74.5	56.0713996887
266.5	-74.5	56.0152244568
267	-74.5	55.91847229
267.5	-74.5	55.7904129028
268	-74.5	55.6402931213
268.5	-74.5	55.4787483215
269	-74.5	55.3154792786
269.5	-74.5	55.1591110229
270	-74.5	55.0176277161
270.5	-74.5	54.8955497742
271	-74.5	54.7944335938
271.5	-74.5	54.7164840698
272	-74.5	54.6591758728
272.5	-74.5	54.6196937561
273	-74.5	54.5926208496
273.5	-74.5	54.5727157593
274	-74.5	54.5553627014
274.5	-74.5	54.5357131958
275	-74.5	54.5120544434
275.5	-74.5	54.4837532043
276	-74.5	54.4530944824
276.5	-74.5	54.4245796204
277	-74.5	54.4042892456
277.5	-74.5	54.3989524841
278	-74.5	54.4154129028
278.5	-74.5	54.4580802917
279	-74.5	54.530040741
279.5	-74.5	54.6327285767
280	-74.5	54.7645721436
280.5	-74.5	54.9233093262
281	-74.5	55.1061897278
281.5	-74.5	55.3112487793
282	-74.5	55.5376625061
282.5	-74.5	55.786529541
283	-74.5	56.0605545044
283.5	-74.5	56.3635978699
284	-74.5	56.6992340088
284.5	-74.5	57.0694885254
285	-74.5	57.4732246399
285.5	-74.5	57.9054489136
286	-74.5	58.3568382263
286.5	-74.5	58.8146972656
287	-74.5	59.2642784119
287.5	-74.5	59.6904602051
288	-74.5	60.080242157
288.5	-74.5	60.4247779846
289	-74.5	60.7211151123
289.5	-74.5	60.9730606079
290	-74.5	61.1911125183
290.5	-74.5	61.3921394348
291	-74.5	61.5983047485
291.5	-74.5	61.8358840942
292	-74.5	62.1339035034
292.5	-74.5	62.5214958191
293	-74.5	63.0265159607
293.5	-74.5	63.6739234924
294	-74.5	64.4843902588
294.5	-74.5	65.4735336304
295	-74.5	66.6508789062
295.5	-74.5	68.0196990967
296	-74.5	69.577003479
296.5	-74.5	71.3138504028
297	-74.5	73.2155380249
297.5	-74.5	75.262336731
298	-74.5	77.4299240112
298.5	-74.5	79.6897201538
299	-74.5	82.0091629028
335	-74.5	150.741424561
335.5	-74.5	153.794250488
336	-74.5	156.802368164
336.5	-74.5	159.721176147
337	-74.5	162.512390137
337.5	-74.5	165.145324707
338	-74.5	167.598403931
338.5	-74.5	169.859603882
339	-74.5	171.925308228
339.5	-74.5	173.79888916
340	-74.5	175.489227295
340.5	-74.5	177.009613037
341	-74.5	178.376419067
341.5	-74.5	179.607559204
342	-74.5	180.722503662
342.5	-74.5	181.740478516
343	-74.5	182.679016113
343.5	-74.5	183.553741455
344	-74.5	184.37739563
344.5	-74.5	185.159591675
345	-74.5	185.906402588
345.5	-74.5	186.619232178
346	-74.5	187.295318604
346.5	-74.5	187.927520752
347	-74.5	188.505020142
347.5	-74.5	189.013961792
348	-74.5	189.438064575
348.5	-74.5	189.759384155
349	-74.5	189.959060669
349.5	-74.5	190.018356323
350	-74.5	189.918212891
350.5	-74.5	189.639541626
351	-74.5	189.163986206
351.5	-74.5	188.473861694
352	-74.5	187.553344727
352.5	-74.5	186.389526367
353	-74.5	184.974105835
353.5	-74.5	183.318984985
354	-74.5	181.419815063
354.5	-74.5	179.291290283
355	-74.5	176.958938599
355.5	-74.5	174.444137573
356	-74.5	171.78263855
356.5	-74.5	169.011444092
357	-74.5	166.153991699
357.5	-74.5	163.245437622
358	-74.5	160.317230225
358.5	-74.5	157.403945923
359	-74.5	154.545974731
359.5	-74.5	151.791320801
0.5	-75	149.110061646
1	-75	147.697875977
1.5	-75	146.550384521
2	-75	145.692855835
2.5	-75	145.141235352
3	-75	144.902755737
3.5	-75	144.977600098
4	-75	145.365783691
4.5	-75	146.050170898
5	-75	147.026763916
5.5	-75	148.283721924
6	-75	149.811935425
6.5	-75	151.607131958
7	-75	153.679260254
7.5	-75	156.056121826
8	-75	158.774749756
8.5	-75	161.886871338
9	-75	165.44934082
9.5	-75	169.51651001
10	-75	174.127380371
10.5	-75	179.293762207
11	-75	184.990905762
11.5	-75	191.153778076
12	-75	197.674224854
12.5	-75	204.405532837
13	-75	211.17149353
13.5	-75	217.775894165
14	-75	224.015228271
14.5	-75	229.692443848
15	-75	234.632156372
15.5	-75	238.695800781
16	-75	241.792053223
16.5	-75	243.886611938
17	-75	245.002563477
17.5	-75	245.216674805
18	-75	244.653335571
18.5	-75	243.46925354
19	-75	241.839019775
19.5	-75	239.937591553
20	-75	237.92628479
20.5	-75	235.939987183
21	-75	234.084030151
21.5	-75	232.429534912
22	-75	231.017333984
22.5	-75	229.862075806
23	-75	228.952728271
23.5	-75	228.263183594
24	-75	227.756195068
24.5	-75	227.390213013
25	-75	227.123733521
25.5	-75	226.91973877
26	-75	226.746505737
26.5	-75	226.580581665
27	-75	226.406829834
27.5	-75	226.218475342
28	-75	226.016525269
28.5	-75	225.809280396
29	-75	225.611206055
29.5	-75	225.440673828
30	-75	225.317550659
30.5	-75	225.261123657
31	-75	225.287628174
31.5	-75	225.409088135
32	-75	225.63269043
32.5	-75	225.960250854
33	-75	226.388748169
33.5	-75	226.910842896
34	-75	227.515045166
34.5	-75	228.186538696
35	-75	228.90713501
35.5	-75	229.654937744
36	-75	230.40335083
36.5	-75	231.120437622
37	-75	231.768493652
37.5	-75	232.304489136
38	-75	232.681365967
38.5	-75	232.850326538
39	-75	232.763671875
39.5	-75	232.37852478
40	-75	231.660430908
40.5	-75	230.586730957
41	-75	229.149108887
41.5	-75	227.355056763
42	-75	225.227828979
42.5	-75	222.805496216
43	-75	220.138870239
43.5	-75	217.288574219
44	-75	214.321533203
44.5	-75	211.307617188
45	-75	208.315917969
45.5	-75	205.411514282
46	-75	202.652832031
46.5	-75	200.089599609
47	-75	197.76159668
47.5	-75	195.698120117
48	-75	193.917617798
48.5	-75	192.42791748
49	-75	191.22668457
49.5	-75	190.302017212
50	-75	189.633758545
50.5	-75	189.194519043
51	-75	188.951538086
51.5	-75	188.868453979
52	-75	188.907516479
52.5	-75	189.031478882
53	-75	189.205627441
53.5	-75	189.399429321
54	-75	189.588012695
54.5	-75	189.752502441
55	-75	189.880142212
55.5	-75	189.96395874
56	-75	190.001647949
56.5	-75	189.994415283
57	-75	189.945770264
57.5	-75	189.860687256
58	-75	189.744476318
58.5	-75	189.602432251
59	-75	189.439819336
59.5	-75	189.261505127
60	-75	189.07258606
60.5	-75	188.878982544
61	-75	188.687698364
61.5	-75	188.507293701
62	-75	188.34866333
62.5	-75	188.224914551
63	-75	188.152420044
63.5	-75	188.150238037
64	-75	188.240127563
64.5	-75	188.445648193
65	-75	188.791412354
65.5	-75	189.30090332
66	-75	189.995162964
66.5	-75	190.889862061
67	-75	191.99420166
67.5	-75	193.308837891
68	-75	194.823867798
68.5	-75	196.518478394
69	-75	198.360626221
69.5	-75	200.309265137
70	-75	202.317001343
70.5	-75	204.3334198
71	-75	206.309814453
71.5	-75	208.203186035
72	-75	209.979782104
72.5	-75	211.618118286
73	-75	213.110855103
73.5	-75	214.464157104
74	-75	215.696884155
74.5	-75	216.837173462
75	-75	217.919021606
75.5	-75	218.980194092
76	-75	220.058547974
76.5	-75	221.189498901
77	-75	222.402908325
77.5	-75	223.721405029
78	-75	225.159225464
78.5	-75	226.720794678
79	-75	228.401901245
79.5	-75	230.189102173
80	-75	232.061233521
80.5	-75	233.990402222
81	-75	235.943649292
81.5	-75	237.884613037
82	-75	239.775695801
82.5	-75	241.57975769
83	-75	243.261383057
83.5	-75	244.788452148
84	-75	246.132720947
84.5	-75	247.270614624
85	-75	248.183776855
85.5	-75	248.859603882
86	-75	249.291137695
86.5	-75	249.47744751
87	-75	249.423736572
87.5	-75	249.141616821
88	-75	248.649230957
88.5	-75	247.971069336
89	-75	247.137237549
89.5	-75	246.182128906
90	-75	245.143188477
90.5	-75	244.060119629
91	-75	242.973831177
91.5	-75	241.92515564
92	-75	240.953903198
92.5	-75	240.097854614
93	-75	239.392578125
93.5	-75	238.871520996
94	-75	238.565322876
94.5	-75	238.501403809
95	-75	238.703308105
95.5	-75	239.189804077
96	-75	239.974975586
96.5	-75	241.067749023
97	-75	242.4712677
97.5	-75	244.181060791
98	-75	246.184051514
98.5	-75	248.456665039
99	-75	250.964508057
99.5	-75	253.66229248
100	-75	256.49420166
100.5	-75	259.395141602
101	-75	262.293243408
101.5	-75	265.113342285
102	-75	267.781066895
102.5	-75	270.227233887
103	-75	272.392669678
103.5	-75	274.231964111
104	-75	275.715820312
104.5	-75	276.832275391
105	-75	277.586273193
105.5	-75	277.998443604
106	-75	278.102172852
106.5	-75	277.939666748
107	-75	277.556793213
107.5	-75	276.997283936
108	-75	276.297180176
108.5	-75	275.48034668
109	-75	274.555877686
109.5	-75	273.518218994
110	-75	272.348388672
110.5	-75	271.015136719
111	-75	269.479766846
111.5	-75	267.701019287
112	-75	265.640930176
112.5	-75	263.270629883
113	-75	260.574859619
113.5	-75	257.555755615
114	-75	254.235687256
114.5	-75	250.657852173
115	-75	246.884887695
115.5	-75	242.996231079
116	-75	239.084350586
116.5	-75	235.249847412
117	-75	231.595550537
117.5	-75	228.220565796
118	-75	225.214874268
118.5	-75	222.655654907
119	-75	220.603515625
119.5	-75	219.100006104
120	-75	218.165649414
120.5	-75	217.799453735
121	-75	217.979400635
121.5	-75	218.663986206
122	-75	219.7940979
122.5	-75	221.295700073
123	-75	223.082595825
123.5	-75	225.062026978
124	-75	227.140274048
124.5	-75	229.227813721
125	-75	231.244491577
125.5	-75	233.122436523
126	-75	234.809371948
126.5	-75	236.271057129
127	-75	237.49118042
127.5	-75	238.46987915
128	-75	239.221588135
128.5	-75	239.77116394
129	-75	240.149917603
129.5	-75	240.392044067
130	-75	240.531173706
130.5	-75	240.598068237
131	-75	240.61882019
131.5	-75	240.613845825
132	-75	240.597732544
132.5	-75	240.579605103
133	-75	240.564178467
133.5	-75	240.552764893
134	-75	240.543945312
134.5	-75	240.534088135
135	-75	240.518005371
135.5	-75	240.488586426
136	-75	240.436965942
136.5	-75	240.352996826
137	-75	240.224853516
137.5	-75	240.039932251
138	-75	239.785354614
138.5	-75	239.449142456
139	-75	239.021820068
139.5	-75	238.497909546
140	-75	237.87789917
140.5	-75	237.169692993
141	-75	236.389968872
141.5	-75	235.563827515
142	-75	234.7240448
142.5	-75	233.909225464
143	-75	233.1612854
143.5	-75	232.522171021
144	-75	232.031204224
144.5	-75	231.721939087
145	-75	231.619766235
145.5	-75	231.739746094
146	-75	232.085510254
146.5	-75	232.649429321
147	-75	233.412506104
147.5	-75	234.34538269
148	-75	235.409576416
148.5	-75	236.559051514
149	-75	237.742263794
149.5	-75	238.903442383
150	-75	239.983413696
150.5	-75	240.92010498
151	-75	241.649765015
151.5	-75	242.107925415
152	-75	242.230178833
152.5	-75	241.952041626
153	-75	241.206848145
153.5	-75	239.923278809
154	-75	238.016372681
154.5	-75	235.406692505
155	-75	232.012802124
155.5	-75	227.748413086
156	-75	222.540359497
156.5	-75	216.314468384
157	-75	209.001571655
157.5	-75	200.565689087
158	-75	191.029418945
158.5	-75	180.474761963
159	-75	169.052871704
159.5	-75	156.989608765
160	-75	144.578521729
160.5	-75	132.154586792
161	-75	120.064888
161.5	-75	108.633453369
162	-75	98.1303100586
162.5	-75	88.7464599609
163	-75	80.5832443237
163.5	-75	73.6561203003
223.5	-75	47.5807533264
224	-75	46.44506073
224.5	-75	45.3748321533
225	-75	44.3701667786
225.5	-75	43.4403877258
226	-75	42.582485199
226.5	-75	41.8004760742
227	-75	41.0993347168
227.5	-75	40.4840621948
228	-75	39.9509963989
228.5	-75	39.5152320862
229	-75	39.1777305603
229.5	-75	38.9420280457
230	-75	38.7960853577
230.5	-75	38.7395553589
231	-75	38.7759170532
231.5	-75	38.8940734863
232	-75	39.0871734619
232.5	-75	39.3474121094
233	-75	39.6660270691
233.5	-75	40.0283966064
234	-75	40.4298210144
234.5	-75	40.8559265137
235	-75	41.2941551208
235.5	-75	41.7296028137
236	-75	42.1461906433
236.5	-75	42.5280227661
237	-75	42.8569335938
237.5	-75	43.1327171326
238	-75	43.3523292542
238.5	-75	43.5239067078
239	-75	43.6465797424
239.5	-75	43.7337684631
240	-75	43.784488678
240.5	-75	43.8085479736
241	-75	43.82995224
241.5	-75	43.856754303
242	-75	43.9024505615
242.5	-75	43.9754295349
243	-75	44.0805587769
243.5	-75	44.2190742493
244	-75	44.388420105
244.5	-75	44.5822944641
245	-75	44.7907562256
245.5	-75	45.0003013611
246	-75	45.1925773621
246.5	-75	45.3627128601
247	-75	45.503276825
247.5	-75	45.6097602844
248	-75	45.6856651306
248.5	-75	45.7264289856
249	-75	45.7386894226
249.5	-75	45.7350120544
250	-75	45.7290611267
250.5	-75	45.7343215942
252.5	-75	46.0904998779
253	-75	46.3032875061
253.5	-75	46.5741920471
254	-75	46.9038085938
254.5	-75	47.2907943726
255	-75	47.7326965332
258.5	-75	51.8990364075
259	-75	52.5593490601
259.5	-75	53.2110328674
260	-75	53.8443832397
260.5	-75	54.449760437
261	-75	55.0208930969
261.5	-75	55.5485038757
262	-75	56.0247116089
262.5	-75	56.4447212219
263	-75	56.8031959534
263.5	-75	57.0966148376
264	-75	57.3242607117
264.5	-75	57.4848136902
265	-75	57.5792160034
265.5	-75	57.6092262268
266	-75	57.5805969238
266.5	-75	57.4993019104
267	-75	57.3725128174
267.5	-75	57.2100563049
268	-75	57.0221252441
268.5	-75	56.8190116882
269	-75	56.6094245911
269.5	-75	56.4025268555
270	-75	56.2041130066
270.5	-75	56.0176506042
271	-75	55.8449325562
271.5	-75	55.6840553284
272	-75	55.5339736938
272.5	-75	55.391002655
273	-75	55.2514533997
273.5	-75	55.1150016785
274	-75	54.9789810181
274.5	-75	54.8441085815
275	-75	54.7161407471
275.5	-75	54.5996017456
276	-75	54.5019416809
276.5	-75	54.4315261841
277	-75	54.3968963623
277.5	-75	54.4058418274
278	-75	54.4651489258
278.5	-75	54.5789146423
279	-75	54.7496833801
279.5	-75	54.9768943787
280	-75	55.259979248
280.5	-75	55.5979957581
281	-75	55.987575531
281.5	-75	56.4282684326
282	-75	56.92029953
282.5	-75	57.4656219482
283	-75	58.0664634705
283.5	-75	58.7244186401
284	-75	59.4391098022
284.5	-75	60.205909729
285	-75	61.0151176453
285.5	-75	61.8512687683
286	-75	62.6936378479
286.5	-75	63.5176010132
287	-75	64.2968215942
287.5	-75	65.0062866211
288	-75	65.6252975464
288.5	-75	66.1402359009
289	-75	66.5465164185
289.5	-75	66.8499832153
290	-75	67.0664672852
290.5	-75	67.2221221924
291	-75	67.3510742188
291.5	-75	67.4939956665
292	-75	67.6950683594
292.5	-75	67.9982910156
293	-75	68.4451217651
293.5	-75	69.0719909668
294	-75	69.9078140259
294.5	-75	70.9722213745
295	-75	72.2742843628
295.5	-75	73.8122024536
296	-75	75.5734939575
296.5	-75	77.535736084
297	-75	79.6683044434
297.5	-75	81.9343185425
298	-75	84.2927474976
298.5	-75	86.7010269165
299	-75	89.116607666
335	-75	151.510620117
335.5	-75	155.444747925
336	-75	159.235458374
336.5	-75	162.816131592
337	-75	166.133071899
337.5	-75	169.149429321
338	-75	171.845916748
